# .PCD v0.7 - Point Cloud Data file format
VERSION 0.7
FIELDS x y z intensity ring
SIZE 4 4 4 4 1
TYPE F F F F U
COUNT 1 1 1 1 1
WIDTH 1229
HEIGHT 1
VIEWPOINT 0 0 0 1 0 0 0
POINTS 1229
DATA ascii
-1.3685315 0.058879621 -0.2513738 26 49
-1.3573972 0.066750273 -0.24908864 21 49
-1.3530552 0.074862823 -0.24825768 46 49
-1.3476887 0.082864858 -0.24721898 30 49
-1.344227 0.090935349 -0.24659576 34 49
-1.3290104 0.098105773 -0.24347964 40 49
-1.3088815 0.10470438 -0.23932482 23 49
-1.3013923 0.11214771 -0.23787063 28 49
-1.1993768 0.1108051 -0.21626557 10 49
-1.1636286 0.11471903 -0.2087869 5 49
-1.1706859 0.1226697 -0.21044883 9 49
-1.1669943 0.12952782 -0.20982561 11 49
-1.1496609 0.13475561 -0.20629402 7 49
-0 0 -0 24 49
-1.1304588 0.14659525 -0.20255467 7 49
-0.25618383 0.035126597 -0.015380062 29 49
-0 0 -0 4 49
-1.1091839 0.16465583 -0.19860759 22 49
-1.0820509 0.1674293 -0.19299859 10 49
-1.0694137 0.17220356 -0.1905057 9 49
-1.0586886 0.17715128 -0.18842828 8 49
-1.0720391 0.18614894 -0.1915444 10 49
-1.0660628 0.1918588 -0.1905057 12 49
-1.0879463 0.20268799 -0.19549148 15 49
-1.1001303 0.21194568 -0.19839986 4 49
-1.1151196 0.22193223 -0.20193145 9 49
-1.1329018 0.23270005 -0.20608628 8 49
-1.1659055 0.2469321 -0.21356495 10 49
-1.1720145 0.25574717 -0.21522687 8 49
-1.2400993 0.27856243 -0.23039196 11 49
-1.2869766 0.29738349 -0.24098675 23 49
-1.3089219 0.31091934 -0.24618028 25 49
-1.3402523 0.32705176 -0.2534512 39 49
-1.3410671 0.33598158 -0.25407442 28 49
-1.3380328 0.34396061 -0.2538667 31 49
-1.3425187 0.3539077 -0.25532088 27 49
-1.3440995 0.36315811 -0.25615185 37 49
-1.3446743 0.37218049 -0.25677508 27 49
-1.3480126 0.38202295 -0.2580215 32 49
-1.3465827 0.39055923 -0.25822926 20 49
-1.3479123 0.39992628 -0.2590602 17 49
-1.3416885 0.40705445 -0.25822926 18 49
-1.3344938 0.41383192 -0.25719056 31 49
-1.3300642 0.42142203 -0.25677508 31 49
-1.3293149 0.43017703 -0.25719056 30 49
-1.3201481 0.43617916 -0.25573635 28 49
-0.27829349 0.094172522 -0.022858737 27 49
-1.3230217 0.45520848 -0.25760603 27 49
-1.3248191 0.46493614 -0.25864473 20 49
-1.3274678 0.47503224 -0.25989118 22 49
-1.3291233 0.48484331 -0.26092988 19 49
-1.3288742 0.49401131 -0.26155311 29 49
-1.3322221 0.50457937 -0.26300728 24 49
-1.3336647 0.51450336 -0.26404601 26 49
-1.3286614 0.52196205 -0.26363051 30 49
-1.3263421 0.53046769 -0.26383826 23 49
-1.3321232 0.54228169 -0.26591566 34 49
-1.3360012 0.55343813 -0.26757759 34 49
-1.3388908 0.56428289 -0.26903179 19 49
-0.31306413 0.13453686 -0.032830302 32 49
-0.24766499 0.10832553 -0.017872954 161 49
-1.3515307 0.59913272 -0.27443305 21 49
-0.23561406 0.1065366 -0.015380062 462 49
-0.23851366 0.10960882 -0.016211025 400 49
-0 0 -0 3 49
-0.23626626 0.11210948 -0.016003285 342 49
-0.23557392 0.11355708 -0.016003285 328 49
-0.23399355 0.11457156 -0.015795544 282 49
-0.23503919 0.11687361 -0.016211025 204 49
-0.23781301 0.12007195 -0.017041991 89 49
-0.23968518 0.12286372 -0.017665213 75 49
-0.23979516 0.12478237 -0.017872954 71 49
-0.23902501 0.12625138 -0.017872954 75 49
-0.24255981 0.13002016 -0.018911658 85 49
-0.24863702 0.13523556 -0.020573586 116 49
-0.25123084 0.13864446 -0.021404549 139 49
-1.330036 0.74274319 -0.28398913 25 49
-0.2478081 0.14075312 -0.020989068 198 49
-0.24439505 0.14080954 -0.020365845 231 49
-0.24352646 0.14230646 -0.020365845 229 49
-0.24012208 0.14230545 -0.019742623 288 49
-0.23420957 0.14076002 -0.018496176 343 49
-0.23083337 0.14067097 -0.017872954 398 49
-0.22996588 0.1420847 -0.017872954 422 49
-0.2266005 0.14193892 -0.017249731 465 49
-0.22737841 0.14437291 -0.017665213 436 49
-0.22154835 0.14259622 -0.016418766 534 49
-0.27069324 0.17648004 -0.029090965 679 49
-0.26470461 0.17490815 -0.02784452 1002 49
-0.28884369 0.19336994 -0.034284491 1372 49
-0.28441131 0.19294567 -0.033453528 1461 49
-0.26628068 0.18307003 -0.029090965 1175 49
-0.24105267 0.16795638 -0.022858737 1042 49
-0.2432171 0.1716845 -0.0236897 1048 49
-0.24056625 0.17203772 -0.023274219 1135 49
-0.23712739 0.17179209 -0.022650996 1155 49
-0.23449005 0.17208847 -0.022235515 1238 49
-0.2357872 0.17527159 -0.022858737 1299 49
-0.23470733 0.17671505 -0.022858737 1362 49
-0.2336186 0.17815186 -0.022858737 1384 49
-0.2294212 0.17719445 -0.022027774 1444 49
-0.22910093 0.17920043 -0.022235515 1591 49
-0.22646189 0.1793901 -0.021820031 1559 49
-0.22535691 0.18077627 -0.021820031 1636 49
-0.22424345 0.18215562 -0.021820031 1687 49
-0.22236525 0.18290776 -0.02161229 1642 49
-0.22199124 0.18489373 -0.021820031 1712 49
-0.22309844 0.18814118 -0.022443255 1739 49
-0.22119509 0.18887235 -0.022235515 1711 49
-0.22225454 0.19214226 -0.022858737 1760 49
-0.22180831 0.19414565 -0.023066478 1791 49
-0.22281173 0.19744636 -0.0236897 1741 49
-0.22305395 0.20011432 -0.024105182 1692 49
-0.22182187 0.2014792 -0.024105182 1826 49
-0.22346504 0.20548116 -0.024936147 1733 49
-0.22076637 0.20551728 -0.024520665 1787 49
-0.22021392 0.20753798 -0.024728406 1799 49
-0.22106217 0.21090826 -0.025351629 1775 49
-0.22187726 0.2142967 -0.025974851 1779 49
-0.2205582 0.21565408 -0.025974851 1811 49
-0.22062296 0.21837784 -0.026390333 1785 49
-0.21997072 0.22041896 -0.026598074 1839 49
-0.21655133 0.21967728 -0.025974851 1848 49
-0.2192992 0.22520161 -0.027221298 1835 49
-0.21587625 0.22443056 -0.026598074 1900 49
-0.21921778 0.23070893 -0.028052261 1827 49
-0.21712774 0.23133726 -0.02784452 1856 49
-0.21637012 0.23338169 -0.028052261 1858 49
-0.21758011 0.23758726 -0.028883224 1902 49
-0.21414696 0.23674394 -0.028260002 1823 49
-0.21464817 0.24023941 -0.028883224 1929 49
-0.21317005 0.24155194 -0.028883224 1986 49
-0.2116839 0.24285538 -0.028883224 1878 49
-0.21210708 0.24637128 -0.029506449 2008 49
-0.21122593 0.24841255 -0.029714189 2029 49
-0.21095765 0.25120059 -0.030129671 1962 49
-0.20878698 0.2517381 -0.02992193 1968 49
-0.20785914 0.25377044 -0.030129671 2030 49
-0.2075303 0.25656065 -0.030545153 2109 49
-0.20717499 0.25935632 -0.030960634 2163 49
-0.20679313 0.26215723 -0.031376116 2168 49
-0.20578267 0.26419216 -0.031583857 2081 49
-0.20535225 0.26699921 -0.031999338 2234 49
-0.20311762 0.26747587 -0.031791598 2288 49
-0.2032357 0.271063 -0.03241482 2241 49
-0.20390023 0.2754471 -0.033245787 2207 49
-0.20278434 0.27748212 -0.033453528 2213 49
-0.20107792 0.27872118 -0.033453528 2214 49
-0.20106894 0.28233814 -0.03407675 2265 49
-0.19313493 0.27477083 -0.031791598 1921 49
-0.18976977 0.27354154 -0.031168375 1394 49
-0.18974854 0.27712017 -0.031791598 796 49
-0.19462807 0.28799742 -0.034284491 269 49
-0.17600431 0.26397702 -0.02784452 371 49
-0.17114939 0.26015288 -0.026598074 698 49
-0.17328528 0.26693681 -0.028052261 1016 49
-0.17270128 0.26964119 -0.028467743 1108 49
-0.16947298 0.26821688 -0.02784452 1013 49
-0.16886093 0.27091068 -0.028260002 1040 49
-0.16976219 0.27610499 -0.029298706 1322 49
-0.16654018 0.27463406 -0.028675484 1423 49
-0.15982103 0.2672618 -0.026598074 1656 49
-0.16365539 0.27749905 -0.028883224 1865 49
-0.1663844 0.28610304 -0.030752894 1980 49
-0.16511333 0.28796661 -0.030960634 2004 49
-0.16141389 0.28557032 -0.030129671 1977 49
-0.15727304 0.28228572 -0.029090965 1866 49
-0.15506613 0.28238857 -0.028883224 1871 49
-0.1523973 0.28161526 -0.028467743 1752 49
-0.14928252 0.27995735 -0.02784452 1599 49
-0.14847396 0.28259882 -0.028260002 1265 49
-0.14853998 0.2869772 -0.029090965 957 49
-0.13875976 0.27220672 -0.025351629 724 49
-0.14544715 0.28965202 -0.029298706 602 49
-0.14584036 0.29492059 -0.030337412 325 49
-0.15089615 0.30987337 -0.033661269 207 49
-0.14602496 0.30462232 -0.032207079 116 49
-0.13787648 0.29225007 -0.029090965 56 49
-0.13690668 0.294864 -0.029506449 25 49
-0.13387218 0.2930308 -0.028883224 27 49
-0.13126747 0.29206327 -0.028467743 30 49
-0.13224925 0.29912239 -0.02992193 17 49
-0.13119362 0.30172139 -0.030337412 19 49
-0.12856859 0.30072278 -0.02992193 16 49
-0.12976168 0.30871654 -0.031583857 16 49
-0.84700412 2.0444846 -0.43044651 8 49
-0.83444345 2.0496433 -0.43044651 8 49
-0.83202755 2.0801532 -0.43626326 4 49
-0.82318473 2.0952334 -0.43854842 16 49
-0.82193774 2.1303592 -0.44540387 5 49
-0.81751704 2.1582298 -0.45059741 8 49
-0.81176186 2.1833754 -0.45516768 9 49
-0.80539316 2.2076116 -0.45953026 5 49
-0.79216212 2.2134328 -0.45973799 6 49
-0.77824169 2.2173288 -0.45953026 10 49
-0.76589555 2.2257619 -0.46036121 7 49
-0 0 -0 5 49
-0.74835032 2.2647126 -0.46700892 5 49
-0 0 -0 4 49
-0.73232812 2.311023 -0.47531858 9 49
-0.7381382 2.379935 -0.48965269 4 49
-0.73034155 2.4068835 -0.49463847 7 49
-0.71917897 2.4235098 -0.4973391 4 49
-0.71465653 2.4635746 -0.50523329 6 49
-0.70433104 2.4848526 -0.50897259 11 49
-0.70317149 2.5400324 -0.5201906 10 49
-0 0 -0 6 49
-0.672198 2.5494161 -0.52039838 11 49
-0.66287923 2.5781233 -0.52579963 7 49
-0.64895093 2.5897326 -0.52746153 6 49
-0.63235217 2.5908151 -0.5268383 7 49
-0.61870581 2.6041629 -0.52891576 12 49
-0.60536015 2.6193464 -0.53140861 18 49
-0.58884764 2.6211028 -0.53099316 13 49
-0.57776237 2.6476026 -0.53597891 10 49
-0.56312865 2.6587532 -0.53764087 12 49
-0.5495615 2.6755726 -0.54054922 23 49
-0.53752863 2.7009592 -0.54532725 36 49
-0.51872367 2.6926806 -0.5428344 18 49
-0.50470179 2.7092752 -0.54574275 11 49
-0.49032235 2.7248361 -0.54844338 11 49
-0.46840248 2.6979175 -0.54200339 24 49
-0.45167801 2.6997759 -0.54179567 24 49
-0.43385899 2.6947708 -0.54013377 43 49
-0.41701666 2.6954489 -0.53971827 50 49
-0.39975101 2.693119 -0.53867954 25 49
-0.38211626 2.6877737 -0.53701764 34 49
-0.36548531 2.6890986 -0.53680992 27 49
-0.3493562 2.6942005 -0.53743309 34 49
-0.33221847 2.6914394 -0.53639442 26 49
-0.31546983 2.6914842 -0.53597891 31 49
-0.29894924 2.6933692 -0.53597891 42 49
-0.28200909 2.6912615 -0.53514796 32 49
-0.26520216 2.6900208 -0.53452474 36 49
-0.24887179 2.6935456 -0.53494024 34 49
-0.23242399 2.6959965 -0.53514796 37 49
-0.21603364 2.699322 -0.53556347 21 49
-0.19953904 2.7015722 -0.53577119 35 49
-0.18309116 2.7046976 -0.5361867 25 49
-0.16637157 2.7038174 -0.53577119 19 49
-0.14977813 2.7047873 -0.53577119 35 49
-0.1326485 2.6949084 -0.53348601 52 49
-0.11623706 2.6986034 -0.53410923 34 49
-0.099567838 2.6963334 -0.53348601 39 49
-0.08308205 2.698849 -0.53390151 37 49
-0.066011608 2.6787724 -0.52953899 30 49
-0.049263652 2.6625009 -0.52600735 40 49
-0.032619964 2.6383002 -0.52081382 27 49
-0.0160506 2.5787828 -0.50814164 12 49
-0.00021638637 2.5338361 -0.49858555 18 49
0.014909933 2.4623837 -0.48342046 29 49
0.029736096 2.438771 -0.47843468 27 49
0.044166442 2.4092021 -0.47220245 42 49
0.05880557 2.4030185 -0.470956 50 49
0.073162086 2.3899019 -0.46825537 33 49
0.087860636 2.3903854 -0.46846312 27 49
0.10252611 2.3898013 -0.46846312 34 49
0.1174743 2.3949893 -0.46970958 25 49
0.13216747 2.3942235 -0.46970958 31 49
0.14697516 2.3953202 -0.47012505 28 49
0.16232719 2.4041328 -0.47220245 32 49
0.17815149 2.4177248 -0.47531858 28 49
0.19492577 2.4409635 -0.48051208 25 49
0.21207556 2.4650612 -0.48591337 20 49
0.22934897 2.4870911 -0.49089915 20 49
0.2565608 2.6073241 -0.51686674 29 49
0.27936253 2.6708844 -0.53078538 42 49
0.29617584 2.6730089 -0.53161639 30 49
0.31427476 2.685715 -0.53473246 39 49
0.33086759 2.6847069 -0.53494024 32 49
0.3464562 2.6758354 -0.53348601 23 49
0.17271502 1.2710582 -0.23288485 6 49
0.18009877 1.2670691 -0.23226163 21 49
0.18887305 1.2727135 -0.23371582 13 49
0.19205253 1.241562 -0.22727585 22 49
0.19827056 1.231668 -0.22540618 22 49
0.20421335 1.22078 -0.22332877 37 49
0.20902807 1.2040828 -0.22000492 23 49
0.21485604 1.1941125 -0.21813525 23 49
0.22092722 1.1860398 -0.21668106 21 49
0.22783104 1.1827407 -0.21626557 34 49
0.23584633 1.1851583 -0.21709654 18 49
0.24488227 1.1923131 -0.21896622 21 49
0.25118172 1.186003 -0.2179275 12 49
0.25970358 1.190174 -0.21917395 35 49
0.26892829 1.1971482 -0.22104362 36 49
0.27692863 1.1983351 -0.22166684 33 49
0.28405046 1.1956614 -0.22145911 29 49
0.29091832 1.1919954 -0.22104362 24 49
0.3015511 1.2034729 -0.223952 156 49
0.3072269 1.1949677 -0.22249781 274 49
0.31455332 1.1930602 -0.22249781 267 49
0.32212275 1.192052 -0.22270554 246 49
0.31848294 1.1504549 -0.21398042 61 49
0.32073992 1.1315376 -0.21024109 46 49
0.32849354 1.1323669 -0.21086432 65 49
0.3332116 1.1228271 -0.20920238 40 49
0.33924368 1.1179531 -0.20857917 52 49
0.34436011 1.1102442 -0.20733272 53 49
0.35116598 1.1081103 -0.20733272 60 49
0.35795859 1.1059347 -0.20733272 50 49
0.36657745 1.1092908 -0.20857917 62 49
0.37368932 1.1079477 -0.2087869 64 49
0.3814345 1.108409 -0.20941013 50 49
0.38887572 1.1078939 -0.20982561 62 49
0.39764223 1.1110135 -0.21107206 74 49
0.40579164 1.1122289 -0.21190302 75 49
0.4132897 1.111552 -0.21231849 79 49
0.42114094 1.1117398 -0.21294172 53 49
0.42901 1.1118729 -0.21356495 67 49
0.43832615 1.1155934 -0.21501914 60 49
0.44625205 1.115608 -0.21564236 54 49
0.45419461 1.1155671 -0.21626557 58 49
0.46290162 1.1172782 -0.21730429 60 49
0.47088736 1.1171215 -0.2179275 54 49
0.47888857 1.1169086 -0.21855073 68 49
0.48807693 1.1193298 -0.21979718 70 49
0.49691674 1.1207857 -0.22083588 65 49
0.50498939 1.1203914 -0.22145911 40 49
0.51307589 1.1199399 -0.22208233 45 49
0.55624521 1.1948193 -0.24036354 180 49
0.56607407 1.19669 -0.24160998 206 49
0.57594675 1.1984848 -0.24285643 239 49
0.58286089 1.1940491 -0.24264868 215 49
0.59191334 1.1939564 -0.24347964 202 49
0.60054696 1.1929235 -0.24410287 213 49
0.60830021 1.1900873 -0.2443106 217 49
0.61649156 1.1880692 -0.24472609 216 49
0.62513661 1.1868609 -0.24534932 201 49
0.63379002 1.1855912 -0.24597254 214 49
0.64291751 1.1851199 -0.24680351 216 49
0.6530059 1.186295 -0.24804994 190 49
0.66217941 1.1856827 -0.24888091 200 49
0.67233384 1.1867046 -0.25012735 215 49
0.68301272 1.1884946 -0.25158155 200 49
0.69176942 1.186817 -0.25220478 202 49
0.7035163 1.19013 -0.25407442 201 49
0.71432436 1.1916648 -0.25552863 193 49
0.72416192 1.1914396 -0.25656733 196 49
0.73453653 1.1919712 -0.25781378 194 49
0.74235451 1.1882715 -0.2580215 211 49
0.75224727 1.1878269 -0.2590602 181 49
0.76110607 1.1856587 -0.25968343 185 49
0.76996648 1.1834266 -0.26030666 192 49
0.78044289 1.1835805 -0.26155311 175 49
0.79095006 1.1836503 -0.26279956 177 49
0.80148733 1.1836355 -0.26404601 186 49
0.81260723 1.1843425 -0.26550019 184 49
0.82320774 1.1841542 -0.26674664 200 49
0.83439946 1.1846799 -0.26820081 187 49
0.8456285 1.1851127 -0.26965502 211 49
0.85632128 1.1846592 -0.27090144 191 49
0.86646247 1.1833296 -0.27194017 199 49
0.87836707 1.1842773 -0.2736021 191 49
0.88914108 1.1835589 -0.27484852 191 49
0.90171552 1.1850885 -0.2767182 184 49
0.91374516 1.1857331 -0.27838013 177 49
0.92521489 1.1855032 -0.2798343 191 49
0.93732232 1.1859446 -0.28149626 188 49
0.9488588 1.1855179 -0.28295043 193 49
0.96227235 1.1872743 -0.28502783 177 49
0.97202069 1.1843728 -0.28585881 209 49
0.98426956 1.1844062 -0.28752074 197 49
0.99781448 1.1858307 -0.28959814 168 49
1.0082427 1.1834097 -0.29063684 172 49
1.0199562 1.1823868 -0.29209104 176 49
1.0323383 1.1820015 -0.29375297 201 49
1.0408671 1.1771108 -0.29416844 225 49
1.0604633 1.1845523 -0.29811552 164 49
1.0736222 1.1845475 -0.2999852 159 49
1.0828538 1.1801003 -0.30060843 180 49
1.0940678 1.1777349 -0.30185485 189 49
1.1099832 1.1802652 -0.30455548 94 49
1.0996718 1.1550084 -0.29915422 47 49
1.1114887 1.1531703 -0.30060843 28 49
1.1192265 1.147029 -0.30081615 37 49
1.1241816 1.1380517 -0.30019292 49 49
1.1394416 1.1394346 -0.30268583 40 49
1.1478032 1.1337968 -0.3031013 34 49
1.1624378 1.1342491 -0.30538645 29 49
1.1757128 1.1332062 -0.30725613 20 49
1.1890185 1.1320429 -0.30912578 41 49
1.2030662 1.131429 -0.31120321 24 49
1.2214501 1.1346805 -0.31452706 26 49
1.2327129 1.1311336 -0.31577352 35 49
1.2381809 1.1222343 -0.31535801 25 49
1.2661743 1.1335419 -0.32138252 13 49
1.2914217 1.141955 -0.32657602 10 49
0 0 -0 6 49
0 0 -0 4 49
1.3449781 1.1459107 -0.33571663 6 49
0 0 -0 5 49
0 0 -0 4 49
0 0 -0 5 49
0 0 -0 4 49
0 0 -0 5 49
2.3169732 1.8315736 -0.58770645 7 49
2.32971 1.8185264 -0.58812189 4 49
0 0 -0 4 49
0 0 -0 5 49
0 0 -0 7 49
0 0 -0 8 49
2.3843966 1.7462072 -0.58812189 7 49
2.4125044 1.7441546 -0.5926922 7 49
0 0 -0 6 49
0 0 -0 3 49
0 0 -0 6 49
0 0 -0 4 49
2.3952236 1.622149 -0.57482648 4 49
0 0 -0 4 49
0 0 -0 6 49
2.1918504 1.4262365 -0.51582807 5 49
2.1190765 1.3604308 -0.4952617 14 49
2.091027 1.3243678 -0.48612109 5 49
2.0982842 1.310994 -0.48591337 10 49
2.111285 1.3011746 -0.48715979 14 49
2.1158857 1.2861626 -0.48632884 6 49
0 0 -0 4 49
0 0 -0 3 49
2.1552565 1.2563605 -0.49027592 48 49
2.1400285 1.2299483 -0.48466691 81 49
2.1994452 1.2462175 -0.4973391 30 49
3.1130733 1.7389214 -0.71775228 6 49
3.1014068 1.7075186 -0.71235102 5 49
3.1324589 1.6996551 -0.71733677 16 49
3.1393785 1.6785573 -0.71650583 19 49
3.1426957 1.6556147 -0.71484393 6 49
3.1363001 1.627737 -0.71089685 7 49
3.1331649 1.601782 -0.70778072 5 49
3.1350715 1.5785669 -0.70591104 5 49
3.1315536 1.5527811 -0.70279491 8 49
3.1111376 1.5189422 -0.69573176 13 49
0 0 -0 4 49
0 0 -0 5 49
3.0623116 1.4259005 -0.67786598 5 49
0 0 -0 5 49
3.0777955 1.3874097 -0.67745054 6 49
3.1059222 1.3772241 -0.68202084 7 49
3.1179006 1.3597051 -0.68285179 13 49
3.1297808 1.3420908 -0.68368274 19 49
3.1280422 1.3186806 -0.68139762 13 49
3.125231 1.2949679 -0.67890471 28 49
3.1349299 1.2765055 -0.67932022 14 49
3.1308973 1.2525212 -0.67661959 11 49
3.1376133 1.232929 -0.67641181 13 49
3.1505947 1.2157673 -0.67765826 9 49
3.1653128 1.199186 -0.67932022 11 49
3.1918643 1.1869031 -0.68368274 16 49
3.2091944 1.1709853 -0.68596792 16 49
3.2218447 1.1532507 -0.68721437 10 49
3.2667003 1.1467483 -0.69573176 22 49
3.3458176 1.1515206 -0.71193552 87 49
4.3408294 1.4643654 -0.9333874 65 49
3.4943638 1.1548995 -0.74205798 40 49
3.5227883 1.140368 -0.74683601 47 49
3.5726111 1.1323305 -0.75639212 35 49
3.775681 1.1712701 -0.80001771 14 49
4.4604573 1.3538246 -0.95042217 18 49
4.2098694 1.2495842 -0.89308566 7 49
4.2700644 1.2389989 -0.90471917 11 49
5.5348525 1.5693529 -1.1822611 10 49
4.4442616 1.2306346 -0.93982738 9 49
0 0 -0 10 49
5.6148219 1.4809327 -1.1936868 8 49
5.5319114 1.4228116 -1.1735359 50 49
5.6050568 1.4050194 -1.1876624 26 49
7.7677975 1.8967279 -1.6586112 14 49
7.8202109 1.8587586 -1.667544 42 49
7.8238444 1.8089764 -1.6658821 68 49
7.8233442 1.7583616 -1.6633892 65 49
7.8148732 1.7061515 -1.6592344 54 49
7.7974439 1.6522863 -1.6532098 53 49
7.7700672 1.5967301 -1.645108 63 49
4.991869 0.99379051 -1.0414127 76 49
5.0007544 0.96369779 -1.0420359 75 49
0 0 -0 7 49
4.5116014 0.81210399 -0.93401062 13 49
4.6109462 0.80081743 -0.95436925 54 49
4.628315 0.77461022 -0.95706987 36 49
5.4586759 0.87925559 -1.1346884 31 49
4.8743043 0.75443083 -1.0079664 26 49
5.0849323 0.75512964 -1.0522152 100 49
5.4477878 0.77490902 -1.1290793 47 49
5.5949202 0.76085341 -1.1596173 354 49
5.723649 0.74262804 -1.1862081 75 49
5.75528 0.71085364 -1.1920249 210 49
0 0 -0 72 49
4.9731731 0.55232859 -1.0231315 170 49
4.9852242 0.52272213 -1.0250012 19 49
7.9301057 0.78257525 -1.6527944 53 49
7.9522905 0.73552477 -1.6565337 101 49
7.9693232 0.68781066 -1.6592344 99 49
12.435245 0.9966417 -2.6098571 40 49
14.437032 1.0680302 -3.0348949 30 49
14.481375 0.98200822 -3.0429969 13 49
15.304315 0.94353551 -3.216876 24 49
16.899851 0.93789136 -3.5550785 13 49
16.95023 0.83639681 -3.5646346 59 49
16.938429 0.7316584 -3.5611029 47 49
16.918161 0.62680644 -3.5559094 30 49
16.909956 0.52262384 -3.5534165 51 49
16.946093 0.41968066 -3.5604796 37 49
16.818272 0.31326759 -3.53285 65 49
2.8740242 0.035569455 -0.5708794 52 49
2.8702755 0.017909156 -0.57004845 135 49
2.873266 0.00029784368 -0.57067168 158 49
2.8761482 -0.017349493 -0.5712949 184 49
2.8759878 -0.034996878 -0.5712949 159 49
2.8757188 -0.052642949 -0.5712949 152 49
2.8772974 -0.070334576 -0.57171035 159 49
2.875834 -0.087958246 -0.57150263 141 49
2.8644874 -0.10520891 -0.5692175 83 49
16.981745 -0.72614884 -3.5702436 13 49
16.933981 -0.82823169 -3.5611029 43 49
16.9403 -0.93276608 -3.5635958 46 49
16.944021 -1.0372897 -3.5656731 48 49
16.966618 -1.143209 -3.5719054 53 49
16.980745 -1.2488706 -3.5764759 46 49
17.009817 -1.355992 -3.5843699 50 49
17.002151 -1.4604204 -3.5845776 39 49
16.373363 -1.507686 -3.4524543 25 49
10.747703 -1.0563457 -2.2539968 106 49
7.9653597 -0.83236021 -1.6613117 240 49
7.9805198 -0.88347834 -1.6656743 439 49
8.0089531 -0.93640345 -1.6729453 266 49
8.4671259 -1.0426522 -1.7722454 73 49
7.9483542 -1.028342 -1.6625582 124 49
7.9244471 -1.0747274 -1.6588188 106 49
7.8750896 -1.1172869 -1.6496782 118 49
7.839057 -1.1612877 -1.6434461 97 49
7.8124495 -1.2063807 -1.6392912 99 49
7.791379 -1.252122 -1.6363828 93 49
5.5499692 -0.92699647 -1.1554625 60 49
5.5258641 -0.95785993 -1.1515154 103 49
5.5295105 -0.99347711 -1.1535928 60 49
5.1992178 -0.96712589 -1.0835841 10 49
4.834887 -0.93011141 -1.0060967 31 49
4.7235513 -0.93879372 -0.98324525 76 49
4.6774559 -0.95950675 -0.97452009 74 49
4.575778 -0.96795273 -0.95374602 54 49
4.5219646 -0.98559934 -0.94335896 10 49
4.6246409 -1.0377336 -0.96704143 11 49
3.9519446 -0.91234893 -0.82183051 47 49
3.9453204 -0.93635464 -0.82162279 67 49
3.9433022 -0.96147156 -0.82245374 52 49
3.943022 -0.98707378 -0.82370019 77 49
3.9482605 -1.0141684 -0.82619303 75 49
3.9504769 -1.0406171 -0.82806271 48 49
3.9468505 -1.0656018 -0.82868594 56 49
2.1960342 -0.60756361 -0.44436517 15 49
2.1724999 -0.61543137 -0.44000259 15 49
2.1545897 -0.62466669 -0.43688649 16 49
2.1160157 -0.62759006 -0.42920008 23 49
2.0971467 -0.63602227 -0.42587623 11 49
2.0259299 -0.62803662 -0.41091886 28 49
1.9810047 -0.62746716 -0.40177825 25 49
1.9426795 -0.62847686 -0.39409184 23 49
1.9127779 -0.63179988 -0.38827509 22 49
1.8550999 -0.62541062 -0.37622613 27 49
1.8031248 -0.62024599 -0.36542359 64 49
1.7808233 -0.62482482 -0.36126879 54 49
1.7484025 -0.62553108 -0.3548288 34 49
1.7178791 -0.62653333 -0.34880432 39 49
1.6819084 -0.62514132 -0.34153339 33 49
1.6423612 -0.62194711 -0.33343148 25 49
1.6093069 -0.62075436 -0.32678378 43 49
1.5790619 -0.62025207 -0.3207593 38 49
1.5461596 -0.61831337 -0.31411156 37 49
1.5142478 -0.61636323 -0.30767161 37 49
1.4914572 -0.61778641 -0.30330905 41 49
1.4669039 -0.6181941 -0.298531 50 49
1.4406043 -0.61755371 -0.29333746 52 49
1.4071944 -0.61348867 -0.28648204 59 49
1.3855164 -0.61418778 -0.2823272 62 49
1.3665591 -0.61584926 -0.2787956 68 49
1.3494132 -0.61811572 -0.2756795 70 49
1.336726 -0.62225813 -0.2736021 82 49
1.3222703 -0.62543225 -0.27110919 131 49
1.317526 -0.63311034 -0.27090144 124 49
1.3136165 -0.6411826 -0.27090144 131 49
1.3114107 -0.65009916 -0.27131695 130 49
1.3117663 -0.66033155 -0.27235565 176 49
1.308561 -0.66881293 -0.27256337 157 49
1.3087745 -0.67908096 -0.2736021 147 49
1.3115079 -0.69074345 -0.27526402 149 49
1.3141472 -0.702465 -0.27692595 160 49
1.3175517 -0.71471089 -0.2787956 180 49
1.318284 -0.72561055 -0.28004205 184 49
1.3095361 -0.7313022 -0.27900335 168 49
1.3186438 -0.74703467 -0.2823272 225 49
1.3191247 -0.75803459 -0.28357366 224 49
1.3178296 -0.76808369 -0.28440461 235 49
1.313092 -0.77615529 -0.28440461 189 49
1.3141788 -0.78771645 -0.28585881 228 49
1.3101568 -0.79627311 -0.28606653 317 49
1.3052462 -0.80429709 -0.28606653 442 49
1.3069246 -0.81643516 -0.28772846 232 49
1.2969311 -0.82130015 -0.28648204 149 49
1.291044 -0.82871431 -0.28627428 159 49
1.2892151 -0.83875334 -0.28710526 186 49
1.2815939 -0.84503329 -0.28648204 185 49
1.271504 -0.84962153 -0.28523558 171 49
1.2581658 -0.85192502 -0.28315818 241 49
1.258562 -0.86350131 -0.28461236 284 49
1.2339602 -0.85781217 -0.27962658 198 49
1.198278 -0.84397137 -0.27173242 140 49
1.1795378 -0.84165281 -0.26820081 101 49
1.1624576 -0.84028208 -0.26508471 99 49
1.1533329 -0.84451056 -0.26404601 101 49
1.1339846 -0.84108609 -0.26030666 94 49
1.124109 -0.8445043 -0.2590602 117 49
1.1048909 -0.84072775 -0.25532088 91 49
1.0904119 -0.84032887 -0.252828 106 49
1.0759797 -0.8397842 -0.2503351 101 49
1.0631307 -0.840307 -0.24825768 108 49
1.046497 -0.83764875 -0.24514158 108 49
1.0306964 -0.83543408 -0.2422332 102 49
1.0164753 -0.83429813 -0.23974031 129 49
1.0023073 -0.83301944 -0.23724742 121 49
0.98519909 -0.8290801 -0.23392355 124 49
0.97264594 -0.82876766 -0.23184615 122 49
0.95717061 -0.82577765 -0.22893777 126 49
0.94324279 -0.82391584 -0.22644489 116 49
0.93377191 -0.82580125 -0.22519845 139 49
0.92066872 -0.82434022 -0.2229133 129 49
0.91196865 -0.82669014 -0.22187458 145 49
0.9018327 -0.82764214 -0.22042041 153 49
0.88813543 -0.82517314 -0.2179275 97 49
0.87877911 -0.82658726 -0.21668106 96 49
0.86731327 -0.82589483 -0.21481138 146 49
0.85729814 -0.82645041 -0.21335721 143 49
0.84660876 -0.82623136 -0.21169528 142 49
0.83734667 -0.82728696 -0.21044883 156 49
0.82879555 -0.82895166 -0.20941013 153 49
0.82025564 -0.83054274 -0.20837142 149 49
0.80967766 -0.82996047 -0.20670949 156 49
0.79981685 -0.82998401 -0.20525531 158 49
0.7906611 -0.83062625 -0.20400886 150 49
0.78085744 -0.83047515 -0.20255467 155 49
0.77041966 -0.82951868 -0.20089275 174 49
0.75803864 -0.82630384 -0.19860759 150 49
0.74704051 -0.82441789 -0.19673793 161 49
0.7360943 -0.82242829 -0.19486825 184 49
0.72584897 -0.82106829 -0.19320633 176 49
0.71564829 -0.81961375 -0.1915444 158 49
0.70677114 -0.81954622 -0.19029796 198 49
0.69792193 -0.81940085 -0.18905151 179 49
0.68973124 -0.81992614 -0.18801281 189 49
0.68093508 -0.81962979 -0.18676636 225 49
0.67278945 -0.82001251 -0.18572766 237 49
0.66528094 -0.82108605 -0.18489669 203 49
0.65656185 -0.82057136 -0.18365024 213 49
0.64605415 -0.81767881 -0.18178058 223 49
0.63681084 -0.81623054 -0.18032639 210 49
0.62701255 -0.81392509 -0.17866446 216 49
0.62022913 -0.81542206 -0.17804123 239 49
0.613451 -0.81686652 -0.17741802 243 49
0.60667861 -0.81825858 -0.1767948 223 49
0.59991223 -0.81959832 -0.17617157 230 49
0.59372556 -0.82167864 -0.1757561 243 49
0.58469433 -0.8197332 -0.17430191 233 49
0.57683635 -0.81930733 -0.17326319 214 49
0.56788868 -0.8172099 -0.17180902 251 49
0.56009573 -0.8166467 -0.1707703 224 49
0.55287987 -0.81682861 -0.16993934 234 49
0.54622656 -0.81776607 -0.16931611 202 49
0.54012126 -0.81946921 -0.16890064 233 49
0.53561658 -0.82358772 -0.16910838 188 49
0.52791011 -0.82274336 -0.16806968 208 49
0.52180487 -0.82431448 -0.16765419 201 49
0.51518184 -0.82501221 -0.16703098 206 49
0.50805658 -0.82482713 -0.16620001 202 49
0.50146127 -0.82542157 -0.16557679 217 49
0.4933686 -0.82344955 -0.16433033 174 49
0.47187498 -0.79867643 -0.15747489 86 49
0.47435686 -0.81423187 -0.16059101 233 49
0.46691409 -0.81288707 -0.15955229 198 49
0.45854107 -0.80977976 -0.1580981 248 49
0.45404083 -0.81343204 -0.15830585 191 49
0.44668183 -0.81191844 -0.15726714 255 49
0.44075838 -0.81292444 -0.15685166 257 49
0.43576205 -0.81561363 -0.15685166 251 49
0.42983732 -0.81654125 -0.15643618 243 49
0.42346692 -0.81655884 -0.15581296 264 49
0.4162218 -0.81478721 -0.15477425 311 49
0.4103345 -0.81557852 -0.15435877 253 49
0.40445319 -0.81632829 -0.15394329 274 49
0.39814892 -0.8161577 -0.15332006 264 49
0.3927097 -0.81770378 -0.15311232 306 49
0.38642967 -0.81744546 -0.1524891 264 49
0.38058063 -0.81802773 -0.15207362 275 49
0.37433147 -0.81767982 -0.1514504 241 49
0.36769885 -0.81639445 -0.15061943 292 49
0.36030293 -0.81327021 -0.14937298 294 49
0.35374153 -0.81187934 -0.14854202 273 49
0.34682521 -0.80953968 -0.14750332 312 49
0.34071118 -0.80894858 -0.14688009 320 49
0.33424294 -0.80740941 -0.14604913 353 49
0.32965147 -0.81035095 -0.14625688 325 49
0.32467306 -0.81235844 -0.14625688 305 49
0.31860885 -0.81160414 -0.14563365 348 49
0.31291839 -0.8117187 -0.14521816 373 49
0.30654529 -0.80996466 -0.1443872 350 49
0.30054656 -0.80907995 -0.14376397 348 49
0.29591188 -0.81182772 -0.14397173 362 49
0.28927621 -0.8090235 -0.14293301 349 49
0.28398257 -0.80986029 -0.14272527 362 49
0.27805272 -0.8088128 -0.14210205 360 49
0.27371022 -0.81235737 -0.14251754 413 49
0.26718524 -0.80937785 -0.14147884 383 49
0.26130989 -0.80821019 -0.14085561 374 49
0.25664151 -0.81073081 -0.14106335 410 49
0.25137222 -0.81135601 -0.14085561 414 49
0.24553658 -0.81007516 -0.14023238 407 49
0.240283 -0.81062877 -0.14002465 400 49
0.23448654 -0.80926961 -0.13940142 413 49
0.22844894 -0.80692887 -0.13857046 380 49
0.22375454 -0.8092581 -0.13877819 375 49
0.21904014 -0.81156009 -0.13898593 425 49
0.21380685 -0.81194299 -0.13877819 416 49
0.20882083 -0.81323963 -0.13877819 426 49
0.20287533 -0.81071037 -0.13794723 442 49
0.19743292 -0.8100394 -0.13753176 467 49
0.19155392 -0.80742896 -0.13670079 434 49
0.18571441 -0.80477697 -0.13586983 468 49
0.18055835 -0.80494696 -0.13566208 435 49
0.17478113 -0.80221707 -0.13483112 441 49
0.17005835 -0.80423135 -0.13503885 399 49
0.16413574 -0.80046886 -0.13400015 386 49
0.15922107 -0.80146092 -0.13400015 455 49
0.15411521 -0.80146229 -0.13379242 412 49
0.14919464 -0.80239284 -0.13379242 434 49
0.14392169 -0.80136782 -0.13337693 450 49
0.13883442 -0.80127203 -0.13316919 432 49
0.13391529 -0.80210882 -0.13316919 459 49
0.12899113 -0.80291545 -0.13316919 431 49
0.1240621 -0.8036918 -0.13316919 514 49
0.11884088 -0.80250275 -0.13275371 440 49
0.11363894 -0.80128002 -0.13233823 481 49
0.10845648 -0.80002367 -0.13192275 422 49
0.10354558 -0.80067414 -0.13192275 459 49
0.098150901 -0.7974112 -0.13109179 359 49
0.093370244 -0.79896992 -0.13129953 433 49
0.088249996 -0.7975834 -0.13088404 471 49
0.083558626 -0.80005556 -0.13129953 492 49
0.078359663 -0.79763287 -0.1306763 329 49
0.073373869 -0.79712462 -0.13046856 287 49
0.06907054 -0.80438173 -0.13192275 495 49
0.064368181 -0.80771559 -0.13254596 425 49
0.05926653 -0.8061443 -0.13213049 370 49
0.054451421 -0.80844462 -0.13254596 433 49
0.04930922 -0.80583453 -0.13192275 491 49
0.044472236 -0.80807531 -0.13233823 447 49
0.039416678 -0.80637896 -0.13192275 444 49
0.03434138 -0.8036738 -0.13129953 472 49
0.029409483 -0.80386943 -0.13129953 449 49
0.024476478 -0.80403477 -0.13129953 480 49
0.019542554 -0.80416977 -0.13129953 440 49
0.014589652 -0.80329657 -0.13109179 480 49
0.0096726818 -0.80434906 -0.13129953 472 49
0.0047433432 -0.8053714 -0.13150726 447 49
-0.00019888156 -0.80342901 -0.13109179 477 49
-0.0051228581 -0.8024345 -0.13088404 478 49
-0.010034638 -0.80140984 -0.1306763 483 49
-0.014969578 -0.80231118 -0.13088404 472 49
-0.019892186 -0.80220425 -0.13088404 488 49
-0.024784273 -0.80108935 -0.1306763 461 49
-0.029806508 -0.80385482 -0.13129953 468 49
-0.034863606 -0.80658865 -0.13192275 507 49
-0.039812084 -0.80635953 -0.13192275 481 49
-0.044759065 -0.80610007 -0.13192275 492 49
-0.049584862 -0.80385756 -0.13150726 452 49
-0.054582044 -0.80451417 -0.131715 459 49
-0.059445698 -0.80318856 -0.13150726 480 49
-0.064295143 -0.80183357 -0.13129953 482 49
-0.069297582 -0.80239856 -0.13150726 466 49
-0.073950693 -0.79903609 -0.13088404 486 49
-0.079330318 -0.80343479 -0.13192275 427 49
-0.084258609 -0.80293286 -0.13192275 433 49
-0.089183725 -0.80240077 -0.13192275 454 49
-0.094105482 -0.80183846 -0.13192275 473 49
-0.099143207 -0.80221677 -0.13213049 454 49
-0.10393819 -0.80062324 -0.13192275 409 49
-0.10937441 -0.80384767 -0.13275371 434 49
-0.11457939 -0.80509841 -0.13316919 451 49
-0.11951722 -0.80438024 -0.13316919 460 49
-0.12489825 -0.80653197 -0.13379242 447 49
-0.12953436 -0.80381882 -0.13337693 465 49
-0.13446407 -0.80300885 -0.13337693 439 49
-0.13955571 -0.80313253 -0.13358468 432 49
-0.14430809 -0.80129832 -0.13337693 444 49
-0.14940086 -0.80135947 -0.13358468 440 49
-0.15486924 -0.80330944 -0.13420789 376 49
-0.15998594 -0.80330348 -0.13441564 433 49
-0.1651084 -0.80326498 -0.13462338 451 49
-0.17043877 -0.80415082 -0.13503885 372 49
-0.17557795 -0.80404562 -0.1352466 467 49
-0.18072228 -0.80390763 -0.13545434 428 49
-0.18565156 -0.80278361 -0.13545434 436 49
-0.19079964 -0.80258113 -0.13566208 430 49
-0.1957206 -0.8013953 -0.13566208 394 49
-0.20134653 -0.80302608 -0.13628531 426 49
-0.20627002 -0.80177552 -0.13628531 431 49
-0.21193297 -0.80333257 -0.13690853 406 49
-0.21711302 -0.80296147 -0.13711627 428 49
-0.22203581 -0.80161417 -0.13711627 396 49
-0.22748314 -0.80211908 -0.13753176 420 49
-0.23267278 -0.80164772 -0.13773949 426 49
-0.23814318 -0.80208069 -0.13815497 383 49
-0.24362762 -0.80247664 -0.13857046 379 49
-0.24854694 -0.80096668 -0.13857046 407 49
-0.2543425 -0.80222428 -0.13919368 425 49
-0.25956097 -0.8015793 -0.13940142 412 49
-0.26447448 -0.79997158 -0.13940142 386 49
-0.26937804 -0.7983337 -0.13940142 382 49
-0.27458942 -0.79759085 -0.13960916 386 49
-0.2801255 -0.79773718 -0.14002465 367 49
-0.28567371 -0.79784548 -0.14044012 383 49
-0.29089877 -0.79699665 -0.14064787 337 49
-0.29612416 -0.79611373 -0.14085561 315 49
-0.30169588 -0.79611146 -0.14127108 372 49
-0.30868602 -0.79972166 -0.14251754 338 49
-0.31465945 -0.8005442 -0.14314076 298 49
-0.32029158 -0.8004151 -0.14355624 289 49
-0.3251968 -0.79843473 -0.14355624 312 49
-0.33196038 -0.80094337 -0.14459494 287 49
-0.33990586 -0.80610347 -0.14625688 120 49
-0.34638634 -0.80759931 -0.14708784 67 49
-0.35094449 -0.80456191 -0.14688009 76 49
-0.35587457 -0.80239344 -0.14688009 68 49
-0.71425748 -1.5850778 -0.32969216 30 49
-0.72478414 -1.5824442 -0.33010763 29 49
-0.73076695 -1.5699849 -0.32823795 25 49
-0.74080443 -1.5663558 -0.3284457 27 49
-0.75167179 -1.5644263 -0.32906893 38 49
-0.76082796 -1.5589055 -0.32886118 36 49
-0.78166866 -1.5769974 -0.33426246 31 49
-0.78209877 -1.5538207 -0.32989988 37 49
-0.88372201 -1.7293165 -0.37290227 6 49
-0.89026374 -1.716046 -0.3710326 7 49
-0.91808933 -1.7434441 -0.37892675 10 49
-0.93568325 -1.7507199 -0.38204288 8 49
-0.93615162 -1.7260268 -0.37747258 7 49
-0 -0 -0 6 49
-0.96822643 -1.7340546 -0.38225061 10 49
-0.96438992 -1.7025443 -0.37601838 7 49
-0 -0 -0 4 49
-0.98225605 -1.6855102 -0.37477195 7 49
-0.99407226 -1.681978 -0.37539515 6 49
-0 -0 -0 5 49
-0.98366052 -1.6186544 -0.36272296 10 49
-0.97921145 -1.5892669 -0.35690621 4 49
-0.95941591 -1.5359334 -0.34506497 6 49
-0.93324947 -1.4738123 -0.33093861 6 49
-0.90899915 -1.416189 -0.31785092 11 49
-0.89474261 -1.375322 -0.30891806 9 49
-0.8907848 -1.3510201 -0.30414 10 49
-0.89525491 -1.3398347 -0.30268583 9 49
-0.90291095 -1.3335062 -0.30247808 11 49
-0.90831017 -1.3239073 -0.30143937 8 49
-0.92478848 -1.330359 -0.30455548 5 49
-0.92899263 -1.3190603 -0.3031013 8 49
-0.94729185 -1.3276707 -0.30684063 7 49
-0.96687698 -1.3376915 -0.31099546 7 49
-0.97448903 -1.3309443 -0.31078771 7 49
-0.98088968 -1.3225825 -0.31016451 9 49
-0.99720895 -1.3274902 -0.31307286 6 49
-1.007704 -1.324461 -0.31390384 8 49
-1.0235713 -1.3283274 -0.31660447 8 49
-1.0365154 -1.3281922 -0.31826639 6 49
-1.0422201 -1.318737 -0.31743544 5 49
-1.04907 -1.3107895 -0.31701994 5 49
-1.0761805 -1.3278906 -0.32345992 11 49
-1.091132 -1.3295815 -0.32574508 16 49
-1.1030197 -1.3273762 -0.32699153 15 49
-1.113662 -1.3235778 -0.32782248 26 49
-1.1154205 -1.3092721 -0.32574508 21 49
-1.1189618 -1.2972175 -0.32429087 18 49
-1.1223973 -1.2851689 -0.3228367 23 49
-1.1244317 -1.2716612 -0.32096702 30 49
-1.1309088 -1.2632799 -0.32055154 18 49
-1.1333851 -1.2505175 -0.31888962 37 49
-1.1397144 -1.2420979 -0.31847414 31 49
-1.1419896 -1.2293466 -0.31681222 31 49
-1.1468314 -1.2194655 -0.31598124 21 49
-1.149572 -1.2074454 -0.31452706 34 49
-1.1481365 -1.1912111 -0.31182644 27 49
-0 -0 -0 22 49
-0.22525041 -0.22758372 -0.028467743 35 49
-0.21903594 -0.21858703 -0.026182592 40 49
-0.24263692 -0.23924182 -0.032830302 80 49
-0.21750213 -0.2117828 -0.024936147 185 49
-0.20401074 -0.19618523 -0.020573586 358 49
-0.21087694 -0.2003271 -0.022235515 659 49
-0.20996493 -0.19701849 -0.02161229 915 49
-0.22406705 -0.2077131 -0.025351629 1297 49
-0.21236683 -0.19442706 -0.02161229 1608 49
-0.21355581 -0.19312033 -0.02161229 1720 49
-0.21473676 -0.19180635 -0.02161229 1729 49
-0.21517698 -0.18983699 -0.021404549 1744 49
-0.21707435 -0.18915676 -0.02161229 1658 49
-0.21823092 -0.18782125 -0.02161229 1700 49
-0.21937925 -0.18647867 -0.02161229 1653 49
-0.21977101 -0.18449911 -0.021404549 1691 49
-0.21939459 -0.18189643 -0.020989068 1655 49
-0.22050656 -0.18054682 -0.020989068 1616 49
-0.22161022 -0.17919043 -0.020989068 1606 49
-0.22270554 -0.17782727 -0.020989068 1628 49
-0.22379248 -0.17645743 -0.020989068 1633 49
-0.22564198 -0.17568293 -0.021196809 1612 49
-0.22826508 -0.17548962 -0.02161229 1614 49
-0 -0 -0 0 49
-0.23196532 -0.17385064 -0.022027774 1572 49
-0.23381323 -0.17300695 -0.022235515 1552 49
-0.23171395 -0.16925681 -0.021404549 1434 49
-0.23274814 -0.16783184 -0.021404549 1307 49
-0.23456968 -0.1669689 -0.02161229 1311 49
-0.23638938 -0.16608991 -0.021820031 1226 49
-0.23499487 -0.16296075 -0.021196809 1150 49
-0.23437743 -0.16040862 -0.020781327 1106 49
-0.22887847 -0.15457849 -0.019119399 1012 49
-0.22738305 -0.15154028 -0.018496176 962 49
-0.2283086 -0.15014222 -0.018496176 924 49
-0.22922556 -0.14873853 -0.018496176 860 49
-0.22766468 -0.14574347 -0.017872954 782 49
-0.22855465 -0.14434381 -0.017872954 681 49
-0.22943603 -0.1429387 -0.017872954 654 49
-0.22781079 -0.13998818 -0.017249731 518 49
-0.22699387 -0.13757128 -0.016834248 527 49
-0.22867261 -0.13667896 -0.017041991 455 49
-0.22613908 -0.13328156 -0.016211025 404 49
-0.23033266 -0.13386251 -0.017041991 360 49
-0.23454174 -0.13439694 -0.017872954 304 49
-0.23536196 -0.1329553 -0.017872954 263 49
-0.23531941 -0.13103151 -0.017665213 231 49
-0.24725795 -0.13571946 -0.020365845 167 49
-0.24808605 -0.13419977 -0.020365845 156 49
-0.24804224 -0.1322137 -0.020158105 140 49
-0.23932959 -0.12567304 -0.017872954 98 49
-0.24877787 -0.12870918 -0.019950364 72 49
-1.2859527 -0.65716398 -0.26716211 19 49
-0.31061921 -0.15600744 -0.034284491 37 49
-0.30894166 -0.15279464 -0.033661269 42 49
-1.3013469 -0.63509947 -0.26799309 28 49
-1.3069824 -0.62795031 -0.26840857 29 49
-1.3143475 -0.62159276 -0.26923952 25 49
-1.3199103 -0.61434239 -0.26965502 26 49
-1.3183196 -0.60378665 -0.26840857 21 49
-1.3166492 -0.5932737 -0.26716211 31 49
-1.3148996 -0.58280402 -0.26591566 22 49
-1.3130714 -0.57237822 -0.26466921 29 49
-1.3111649 -0.56199694 -0.26342279 25 49
-1.310082 -0.55204076 -0.26238409 23 49
-1.30983 -0.54249364 -0.26155311 31 49
-1.3049808 -0.53112549 -0.25968343 33 49
-1.3036743 -0.52129108 -0.25864473 24 49
-1.3086691 -0.51399779 -0.2590602 23 49
-1.3054104 -0.50349241 -0.25760603 34 49
-1.3103046 -0.49616641 -0.2580215 24 49
-0 -0 -0 18 49
-1.3153758 -0.47971421 -0.25781378 30 49
-1.3210573 -0.47262347 -0.25843701 31 49
-1.3220866 -0.46386051 -0.2580215 31 49
-1.3202833 -0.45414743 -0.2569828 30 49
-1.3128499 -0.44259748 -0.25469765 27 49
-1.3127546 -0.43361247 -0.25407442 24 49
-1.3153905 -0.42554939 -0.25407442 18 49
-1.309585 -0.41480953 -0.25220478 23 49
-1.3177109 -0.40850574 -0.2534512 30 49
-1.3173847 -0.39956018 -0.252828 26 49
-0 -0 -0 20 49
-1.3334616 -0.38663581 -0.25532088 32 49
-1.3320446 -0.37737894 -0.25448993 28 49
-1.3343351 -0.36919859 -0.25448993 22 49
-1.3346868 -0.36049363 -0.25407442 26 49
-1.3330903 -0.35129923 -0.25324348 28 49
-1.3361681 -0.34335667 -0.2534512 33 49
-1.3344545 -0.33419999 -0.25262025 29 49
-1.33648 -0.32600564 -0.25262025 23 49
-1.3432134 -0.31893024 -0.25365895 23 49
-1.3470511 -0.31112325 -0.25407442 35 49
-1.3346194 -0.2996338 -0.25095832 20 49
-1.3383441 -0.29185647 -0.2513738 34 49
-1.2855649 -0.27207816 -0.23953256 14 49
-1.2019346 -0.24665664 -0.22104362 11 49
-0 -0 -0 22 49
-0 -0 -0 5 49
-1.1014551 -0.20494993 -0.19839986 9 49
-0 -0 -0 12 49
-1.123162 -0.19476721 -0.20255467 9 49
-0 -0 -0 13 49
-1.1167761 -0.17956901 -0.20068501 9 49
-1.1526567 -0.17810225 -0.20816368 9 49
-1.1740466 -0.17404532 -0.21252625 12 49
-1.2060821 -0.17124854 -0.21917395 7 49
-1.20711 -0.16384494 -0.21917395 5 49
-1.2100328 -0.15668702 -0.21958943 8 49
-1.1896138 -0.14662005 -0.21501914 7 49
-1.2040924 -0.14091414 -0.2179275 8 49
-1.2156285 -0.13471189 -0.22021265 18 49
-1.2028124 -0.12582122 -0.21730429 13 49
-1.2113494 -0.11920743 -0.21896622 21 49
-1.2286164 -0.11330483 -0.22249781 19 49
-1.2419578 -0.10685812 -0.22519845 17 49
-1.2718416 -0.10158094 -0.23143066 18 49
-1.2909758 -0.095146835 -0.23537774 17 49
-1.3022707 -0.08795204 -0.2376629 25 49
-1.3310994 -0.081706107 -0.24368739 32 49
-1.3481792 -0.074458927 -0.24721898 29 49
-1.3554497 -0.066522874 -0.24867317 22 49
-1.3724459 -0.058922753 -0.25220478 22 49
-1.3698491 -0.05039176 -0.25158155 17 49
-1.3779542 -0.042227495 -0.25324348 15 49
-1.3080264 0.09557502 -0.25559226 27 50
-1.3015807 0.10313156 -0.25427422 30 50
-1.2950916 0.11061261 -0.25295615 33 50
-1.2574743 0.11514258 -0.24460846 21 50
-1.1878133 0.11605337 -0.22901148 10 50
-1.1793169 0.12252533 -0.22725406 5 50
-0 0 -0 4 50
-1.1602838 0.13494211 -0.22329991 8 50
-1.1468472 0.140504 -0.22044411 12 50
-1.134354 0.14603169 -0.21780801 6 50
-0 0 -0 4 50
-0 0 -0 5 50
-1.1034893 0.16272996 -0.2114374 6 50
-1.1130749 0.17113957 -0.21385384 9 50
-0 0 -0 4 50
-1.1137775 0.18526906 -0.21451287 9 50
-1.1404939 0.19694184 -0.22088346 4 50
-1.1133404 0.19926861 -0.21495222 10 50
-1.099629 0.20377234 -0.21209642 10 50
-1.1203907 0.21476237 -0.21714897 8 50
-1.0980024 0.21744165 -0.2123161 4 50
-1.0928252 0.22338925 -0.2114374 6 50
-0 0 -0 5 50
-0 0 -0 5 50
-1.1142274 0.24924302 -0.21736865 5 50
-1.2371922 0.28486529 -0.2461462 8 50
-1.2885722 0.30508479 -0.25844806 19 50
-1.3113168 0.31900251 -0.26415962 19 50
-1.3206903 0.32988936 -0.26679572 21 50
-1.3186413 0.33798677 -0.26679572 28 50
-1.3137127 0.34532496 -0.26613671 29 50
-1.3134526 0.35388845 -0.26657605 28 50
-1.3121966 0.36220136 -0.26679572 25 50
-1.3043181 0.36864915 -0.26547769 29 50
-1.3010947 0.37637347 -0.26525801 24 50
-1.3043722 0.38601562 -0.26657605 31 50
-1.3057131 0.39514533 -0.26745477 29 50
-1.3116497 0.4057515 -0.26943186 24 50
-1.3091354 0.41379198 -0.26943186 32 50
-1.3112124 0.42331946 -0.27053022 25 50
-1.3150742 0.43350035 -0.27206796 25 50
-1.3160871 0.44280884 -0.27294666 21 50
-1.3124229 0.45055833 -0.27272698 18 50
-1.3077925 0.45795631 -0.27228764 26 50
-1.306795 0.46662983 -0.27272698 22 50
-1.3048236 0.47497389 -0.27294666 20 50
-1.2918265 0.47923023 -0.27053022 10 50
-1.3089317 0.49475291 -0.27536309 23 50
-1.3076916 0.50347763 -0.27580246 22 50
-1.3009459 0.51006454 -0.27492374 29 50
-1.304132 0.52057439 -0.27646148 26 50
-1.3144659 0.53408623 -0.27975661 19 50
-1.3075591 0.54064751 -0.27887791 21 50
-1.3177011 0.55434591 -0.28217304 24 50
-1.3214476 0.5654971 -0.28393045 14 50
-1.3099049 0.57008433 -0.28195336 19 50
-1.3188676 0.58364826 -0.28502885 10 50
-1.3170402 0.59253168 -0.28546819 18 50
-0.28814664 0.13076687 -0.031522807 24 50
-0 0 -0 5 50
-0 0 -0 6 50
-1.2132981 0.58198357 -0.26328093 7 50
-0.274331 0.13266206 -0.028886694 44 50
-0.27351186 0.13434283 -0.028886694 36 50
-1.3017105 0.65424103 -0.28832397 11 50
-1.3098321 0.66843379 -0.29139945 16 50
-1.3083037 0.67780656 -0.29205847 16 50
-1.3239713 0.69628096 -0.297111 5 50
-0 0 -0 4 50
-0.25294763 0.13594323 -0.024932528 53 50
-0.25979996 0.14172789 -0.026909612 56 50
-0 0 -0 13 50
-0 0 -0 3 50
-0.25545564 0.1455135 -0.026470259 53 50
-0 0 -0 9 50
-0 0 -0 6 50
-0 0 -0 9 50
-0.24347179 0.14667054 -0.0242735 94 50
-0.24256724 0.14816169 -0.0242735 69 50
-0.23420785 0.14499405 -0.022296418 60 50
-0.23578613 0.14799467 -0.022955444 92 50
-0 0 -0 5 50
-0 0 -0 6 50
-0.23383644 0.15284681 -0.02317512 79 50
-0.23451629 0.15536305 -0.023614472 82 50
-0.23194318 0.15570484 -0.02317512 90 50
-0.23259209 0.15822922 -0.023614472 113 50
-0.23482059 0.16188139 -0.024493176 99 50
-0.23063287 0.16107157 -0.023614472 111 50
-0.23043425 0.16305046 -0.023834148 105 50
-0.2270578 0.16274637 -0.02317512 119 50
-0.22526792 0.16356003 -0.022955444 112 50
-0 0 -0 5 50
-0.23338242 0.17393138 -0.025811231 116 50
-0 0 -0 4 50
-0.2420474 0.18512098 -0.028886694 114 50
-0.23936902 0.18540196 -0.028447343 95 50
-0 0 -0 4 50
-0.23707584 0.18832543 -0.028447343 112 50
-0.23288466 0.18731894 -0.027568638 114 50
-0.22871488 0.18626818 -0.026689935 115 50
-0.22606727 0.18642072 -0.026250584 79 50
-0.22491916 0.18780433 -0.026250584 85 50
-0.22005016 0.18601678 -0.025152205 105 50
-0.2159503 0.18481404 -0.0242735 123 50
-0.21701622 0.18806125 -0.024932528 113 50
-0.21658891 0.19003567 -0.025152205 114 50
-0.21905246 0.1946153 -0.026250584 104 50
-0.21929964 0.19726631 -0.026689935 107 50
-0.21880379 0.19926792 -0.026909612 119 50
-0.217577 0.20060672 -0.026909612 92 50
-0.21421039 0.1999325 -0.026250584 106 50
-0.21156675 0.19989744 -0.025811231 93 50
-0.20752709 0.1984832 -0.024932528 97 50
-0.20560719 0.19907136 -0.024712851 92 50
-0.20646361 0.20238638 -0.025371879 90 50
-0.2065973 0.20502934 -0.025811231 104 50
-0.20670627 0.20768152 -0.026250584 89 50
-0.21019633 0.2138346 -0.027788315 124 50
-0.20752655 0.21371523 -0.027348964 98 50
-0.20822898 0.21710463 -0.028007992 106 50
-0.20756114 0.219089 -0.028227666 83 50
-0.20886827 0.22321801 -0.029106371 91 50
-0.20683527 0.22377644 -0.028886694 106 50
-0.20611331 0.22576433 -0.029106371 101 50
-0.20407361 0.22629778 -0.028886694 86 50
-0.20074296 0.22535281 -0.028227666 84 50
-0.19935644 0.22658029 -0.028227666 78 50
-0.19541413 0.2248439 -0.027348964 93 50
-0.19466336 0.22678144 -0.027568638 80 50
-0.19766389 0.23319781 -0.029106371 91 50
-0.19934613 0.23815846 -0.030204751 90 50
-0.20530604 0.24842814 -0.032840863 95 50
-0.20562018 0.2519573 -0.033499889 86 50
-0.20285143 0.25169063 -0.033060536 78 50
-0.20432708 0.25675812 -0.034158919 77 50
-0.20034759 0.2549302 -0.033280212 68 50
-0.19937491 0.25692758 -0.033499889 90 50
-0.19602297 0.25581655 -0.032840863 94 50
-0.19093487 0.25233376 -0.031522807 90 50
-0.18996398 0.25428426 -0.031742483 82 50
-0.18782397 0.25465783 -0.031522807 72 50
-0.18454388 0.2534332 -0.030863779 91 50
-0.19148242 0.26647469 -0.034158919 140 50
-0.19658279 0.2772173 -0.036795028 233 50
-0.18931131 0.27040672 -0.034598269 291 50
-0.18433805 0.26673591 -0.033280212 312 50
-0.18488514 0.27109367 -0.034158919 185 50
-0.19080402 0.28358072 -0.037234381 77 50
-0 0 -0 4 50
-0.18199125 0.27772227 -0.035037622 82 50
-0.17870331 0.27637041 -0.034378592 94 50
-0.17700416 0.27746171 -0.034378592 65 50
-0.17219816 0.27357754 -0.033060536 61 50
-0.16898143 0.27213702 -0.03240151 87 50
-0.16832148 0.2748363 -0.032840863 129 50
-0.17866507 0.29594892 -0.038113084 200 50
-0.17734203 0.29787958 -0.03833276 188 50
-0.17551094 0.29896212 -0.03833276 233 50
-0.17464502 0.30172533 -0.038772114 233 50
-0.17086761 0.29939553 -0.037893407 286 50
-0.16760091 0.29788274 -0.037234381 298 50
-0.1634188 0.29463169 -0.036136001 306 50
-0.16207288 0.2964865 -0.036355678 289 50
-0.16025062 0.29747537 -0.036355678 301 50
-0.15524137 0.29241014 -0.034817945 259 50
-0.15883367 0.30374974 -0.037454057 171 50
-0.15519172 0.30124345 -0.036575351 195 50
-0.15640961 0.30829045 -0.038113084 168 50
-0.15581433 0.31186688 -0.038772114 176 50
-0.15304236 0.31106344 -0.03833276 161 50
-0.15450957 0.31903195 -0.040090166 133 50
-0.15296605 0.320856 -0.040309843 143 50
-0.14564471 0.31028962 -0.037454057 107 50
-0.14333197 0.3102904 -0.037234381 72 50
-0.13982284 0.30760598 -0.036355678 44 50
-0.14069894 0.31470183 -0.037893407 18 50
-0.13564783 0.3084043 -0.036136001 10 50
-0.12991102 0.30026343 -0.033939242 15 50
-0.12958093 0.3046512 -0.034817945 12 50
-0.1221118 0.2919198 -0.031522807 10 50
-0.11627448 0.28272331 -0.029106371 17 50
-0.11562375 0.28614914 -0.029765399 12 50
-0.80120516 2.037672 -0.4533006 7 50
-0.10754152 0.27571294 -0.026909612 16 50
-0 0 -0 5 50
-0.77273524 2.076766 -0.45923185 5 50
-0.76532364 2.0961337 -0.46274668 6 50
-0.75573242 2.1099763 -0.46494344 12 50
-0 0 -0 7 50
-0.74151862 2.1532264 -0.47307146 5 50
-0 0 -0 5 50
-0 0 -0 5 50
-0.71256447 2.1999278 -0.48097977 4 50
-0.69816917 2.2014682 -0.48032075 6 50
-0 0 -0 5 50
-0 0 -0 6 50
-0 0 -0 10 50
-0 0 -0 4 50
-0 0 -0 5 50
-0 0 -0 5 50
-0 0 -0 5 50
-0 0 -0 4 50
-0 0 -0 4 50
-0.64712894 2.5808353 -0.55940408 10 50
-0.63151211 2.5857053 -0.55962378 6 50
-0 0 -0 4 50
-0 0 -0 7 50
-0.58231574 2.5902281 -0.55808604 4 50
-0 0 -0 5 50
-0.54725599 2.5819075 -0.55457121 4 50
-0.5347355 2.6014633 -0.55830568 9 50
-0 0 -0 6 50
-0 0 -0 5 50
-0.496393 2.6626582 -0.5701682 8 50
-0.48194331 2.6762161 -0.57258463 7 50
