# .PCD v0.7 - Point Cloud Data file format
VERSION 0.7
FIELDS x y z intensity
SIZE 4 4 4 4
TYPE F F F F
COUNT 1 1 1 1
WIDTH 1352
HEIGHT 1
VIEWPOINT 0 0 0 1 0 0 0
POINTS 1352
DATA ascii
0.67583334 -0.82429731 0.20231691 167
0.66765374 -0.82459158 0.2015356 202
0.65887892 -0.82404542 0.20059802 179
0.65013617 -0.82342279 0.19966045 176
0.64142597 -0.8227241 0.19872287 187
0.63395458 -0.82351452 0.19809783 197
0.62589967 -0.82345825 0.19731651 212
0.61846268 -0.8241241 0.19669147 198
0.60868794 -0.82155615 0.19544138 155
0.59955156 -0.81969655 0.19434755 59
0.58930409 -0.81615484 0.19294117 155
0.57912284 -0.81251848 0.19153482 203
0.57242048 -0.8136338 0.19106604 154
0.56459898 -0.81307536 0.19028473 191
0.55680591 -0.81245178 0.18950342 175
0.54959559 -0.81258124 0.18887837 228
0.54295337 -0.8134743 0.18840958 193
0.53577733 -0.81349182 0.18778454 195
0.52862161 -0.81345201 0.18715948 210
0.5220201 -0.81418645 0.1866907 180
0.51490116 -0.81403601 0.18606564 178
0.50780386 -0.81382906 0.1854406 191
0.50124657 -0.81440669 0.18497181 201
0.49418849 -0.81409049 0.18434677 202
0.48766091 -0.81456572 0.18387797 181
0.48164868 -0.81584191 0.18356545 172
0.47514194 -0.81622165 0.18309666 178
0.4686487 -0.81655234 0.18262789 208
0.46216935 -0.81683421 0.1821591 209
0.45570427 -0.81706738 0.18169031 203
0.44877759 -0.8163867 0.18106526 213
0.44234735 -0.81652015 0.18059647 221
0.43639791 -0.81747675 0.18028395 220
0.4309136 -0.81926507 0.1801277 253
0.42496899 -0.82014006 0.17981516 232
0.41902992 -0.8209731 0.17950264 233
0.41220868 -0.81999958 0.17887759 245
0.40585378 -0.81985837 0.1784088 245
0.39864993 -0.81789482 0.17762749 270
0.3923409 -0.81765449 0.17715871 260
0.38562766 -0.81647474 0.17653365 254
0.37852699 -0.81434804 0.17575236 271
0.37228948 -0.81396115 0.17528357 271
0.36647671 -0.81442904 0.17497104 274
0.36027208 -0.81395334 0.17450225 271
0.35408711 -0.81343222 0.17403346 306
0.34753311 -0.81195807 0.17340842 307
0.34139407 -0.8113445 0.17293963 297
0.33527568 -0.81068623 0.17247085 341
0.32917824 -0.80998361 0.17200206 321
0.32310212 -0.80923671 0.17153327 344
0.31740862 -0.80936527 0.17122075 347
0.31172571 -0.80945444 0.17090823 327
0.30640343 -0.8104282 0.17075196 316
0.30073687 -0.81044126 0.17043944 357
0.29474339 -0.80948746 0.16997066 359
0.28910562 -0.8094207 0.16965812 380
0.28315285 -0.80838329 0.16918935 333
0.27786618 -0.80917138 0.16903308 402
0.2710031 -0.80524528 0.16809551 346
0.26543766 -0.80501711 0.16778299 387
0.25958127 -0.80381137 0.1673142 432
0.2546443 -0.80538899 0.1673142 436
0.24969773 -0.80693626 0.1673142 440
0.24416853 -0.80656278 0.16700168 415
0.23921496 -0.8080458 0.16700168 407
0.23397738 -0.8085497 0.16684541 403
0.2290118 -0.80997014 0.16684541 444
0.22324762 -0.80850416 0.16637662 410
0.21751007 -0.80699807 0.16590784 457
0.21154781 -0.804497 0.16528279 427
0.20562446 -0.80195332 0.16465774 426
0.19998023 -0.80032545 0.16418895 437
0.19412972 -0.79769909 0.16356391 373
0.18945959 -0.79983622 0.16372018 423
0.18499276 -0.80290848 0.1640327 453
0.17984641 -0.8030647 0.16387643 433
0.17533629 -0.8060832 0.16418895 297
0.17038696 -0.80714387 0.16418895 335
0.16523267 -0.80720657 0.1640327 452
0.16008405 -0.80723649 0.16387643 412
0.15382145 -0.80141413 0.16278259 354
0.14980459 -0.80719811 0.16356391 410
0.14432473 -0.80518568 0.16309512 445
0.13887522 -0.80313647 0.16262634 483
0.13378187 -0.80299926 0.16247007 458
0.12853864 -0.80185467 0.16215755 460
0.12331451 -0.80067599 0.16184503 482
0.11825451 -0.80044055 0.16168876 528
0.11334087 -0.80115104 0.16168876 505
0.10842296 -0.80183142 0.16168876 486
0.10350098 -0.80248159 0.16168876 508
0.0985751 -0.80310154 0.16168876 514
0.093415938 -0.80172926 0.16137624 515
0.088386096 -0.80130565 0.16121998 479
0.083570451 -0.8028152 0.16137624 495
0.078449488 -0.80134696 0.16106372 472
0.073440365 -0.80082965 0.16090745 492
0.068271272 -0.79831296 0.16043867 562
0.06329304 -0.79773229 0.1602824 546
0.058324501 -0.79712057 0.16012615 557
0.05316633 -0.79352152 0.15950109 530
0.048538212 -0.79777628 0.16012615 592
0.043696646 -0.79904526 0.1602824 555
0.038792972 -0.79929835 0.1602824 567
0.03401475 -0.80248177 0.16075119 573
0.029126421 -0.80366242 0.16090745 590
0.024164502 -0.80283874 0.16075119 605
0.019213788 -0.80198449 0.16059493 581
0.01427447 -0.80109978 0.16043867 649
0.0093227066 -0.79820931 0.15996988 596
0.0044069523 -0.79528838 0.15950109 609
-0.00047282109 -0.79431278 0.15934484 592
-0.0053651286 -0.79725802 0.15981361 634
-0.010183539 -0.79128426 0.15887605 581
-0.015130018 -0.7961446 0.15965736 640
-0.020185217 -0.80294865 0.16075119 685
-0.025142044 -0.80379695 0.16090745 664
-0.029927725 -0.7996794 0.1602824 648
-0.034621309 -0.79454666 0.15950109 599
-0.039738767 -0.79925191 0.1602824 659
-0.044478264 -0.7960344 0.15981361 622
-0.049422476 -0.79673237 0.15996988 635
-0.054376926 -0.79739958 0.16012615 608
-0.059268653 -0.79705089 0.16012615 643
-0.064236961 -0.79765683 0.1602824 649
-0.069130085 -0.79724765 0.1602824 581
-0.074020602 -0.79680848 0.1602824 572
-0.078908332 -0.79633927 0.1602824 561
-0.083793096 -0.79584014 0.1602824 594
-0.088674702 -0.79531097 0.1602824 584
-0.093552962 -0.79475194 0.1602824 564
-0.098427713 -0.79416293 0.1602824 588
-0.10342578 -0.79452354 0.16043867 581
-0.108565 -0.79583144 0.16075119 547
-0.11358513 -0.79612815 0.16090745 545
-0.11875801 -0.79737025 0.16121998 495
-0.12379937 -0.79760265 0.16137624 519
-0.12869103 -0.79682803 0.16137624 524
-0.13341486 -0.79504925 0.16121998 519
-0.13845965 -0.79518878 0.16137624 531
-0.1436861 -0.79626846 0.16168876 497
-0.14856921 -0.79537183 0.16168876 518
-0.15400729 -0.79735488 0.16215755 499
-0.15889686 -0.79639488 0.16215755 505
-0.16417794 -0.79733998 0.16247007 549
-0.16906723 -0.79631758 0.16247007 484
-0.17479256 -0.79912525 0.16309512 460
-0.1796926 -0.79803771 0.16309512 475
-0.18458588 -0.79692006 0.16309512 479
-0.18947221 -0.79577249 0.16309512 435
-0.19435142 -0.79459494 0.16309512 421
-0.19922331 -0.79338747 0.16309512 451
-0.20384172 -0.79119349 0.16293886 481
-0.21045542 -0.79661334 0.1640327 387
-0.21559708 -0.79626054 0.16418895 377
-0.22100587 -0.79682648 0.16450149 343
-0.2253522 -0.7935549 0.16418895 348
-0.23104271 -0.795003 0.16465774 255
-0.23675947 -0.7964111 0.16512653 130
-0.2404944 -0.79116273 0.16450149 169
-0.24622221 -0.79250234 0.16497026 133
-0.30777603 -0.96987355 0.19466007 22
-0.38307214 -1.1822217 0.23028782 10
-0.35219741 -1.0644958 0.21106759 11
-0.40165478 -1.1895986 0.23231922 11
-0.43465975 -1.2618282 0.24482019 10
-0.3939772 -1.1212063 0.2216934 10
-0.46375856 -1.2945268 0.25122693 5
-0.47372422 -1.2972242 0.25216451 15
-0.47685555 -1.281332 0.24997684 11
-0.48855773 -1.2885422 0.25169572 8
-0.48472092 -1.2551109 0.24653907 5
-0.49132934 -1.2493552 0.24607028 6
-0.50779051 -1.2683264 0.24982058 10
-0.51481831 -1.2633572 0.24950805 6
-0.52445084 -1.264737 0.25028935 7
-0.54102576 -1.2824287 0.25388339 10
-0.54577041 -1.2718227 0.2526333 16
-0.55751204 -1.2775036 0.25419593 9
-0.56934375 -1.2830881 0.25575852 9
-0 -0 0 4
-0.59409744 -1.2957598 0.25919631 8
-0.6095413 -1.3082075 0.26200902 7
-0.62473768 -1.3196211 0.26466548 12
-0.63539016 -1.3211043 0.26560304 15
-0.65128422 -1.3331573 0.26841575 5
-0 -0 0 5
-0 -0 0 6
-0.67301542 -1.3156667 0.2674782 9
-0 -0 0 6
-0.68680823 -1.3029393 0.26669687 5
-0 -0 0 4
-0 -0 0 12
-0.72163087 -1.3099775 0.27029091 10
-0.72821021 -1.3029381 0.26982212 4
-0.75420785 -1.3302411 0.27560383 8
-0.76284808 -1.3264447 0.27576008 11
-0.78241384 -1.341365 0.2793541 9
-0 -0 0 7
-1.6535771 -2.7573934 0.5423432 8
-0 -0 0 5
-1.7054284 -2.7663233 0.54781234 6
-1.7223701 -2.7558069 0.54781234 18
-1.741361 -2.7485244 0.54843742 25
-1.7581929 -2.737788 0.54843742 20
-1.7862716 -2.7443335 0.55171889 7
-1.8047082 -2.735795 0.55218768 8
-1.8132282 -2.7123523 0.54984379 12
-1.8348216 -2.7085357 0.5512501 10
-1.8620249 -2.7127001 0.55421913 18
-1.8814539 -2.7052786 0.55500042 20
-1.913376 -2.7154851 0.55921948 5
-1.9397559 -2.7173615 0.56187594 12
-1.9662305 -2.7190156 0.5645324 15
-1.9945489 -2.7228372 0.56765765 18
-2.0235763 -2.7272065 0.57093912 20
-0 -0 0 5
-2.072443 -2.7226045 0.57500196 6
-2.0860946 -2.7059255 0.57422066 14
-2.1154215 -2.709425 0.57750213 23
-2.1430318 -2.7103415 0.58031487 38
-2.1639428 -2.7025385 0.58140868 32
-2.1935463 -2.7053227 0.58469021 35
-2.2226381 -2.7070816 0.58781546 33
-2.2524652 -2.7093439 0.59109694 31
-2.281131 -2.7098303 0.59406596 32
-2.310528 -2.7108183 0.59719115 24
-2.3406675 -2.7122946 0.60047269 37
-2.3702619 -2.7127588 0.60359794 34
-2.3992953 -2.7122214 0.60656691 35
-2.4317052 -2.7151086 0.61031717 37
-2.4582701 -2.7111135 0.61266112 21
-2.4855447 -2.7076218 0.6151613 25
-2.511524 -2.70245 0.61734897 32
-1.2408872 -1.3186103 0.32013851 89
-1.260534 -1.3231312 0.32279497 37
-1.2658869 -1.3125275 0.32216993 56
-1.2690874 -1.2997874 0.3210761 76
-1.2832867 -1.2982996 0.32248244 48
-1.3051987 -1.3043679 0.32560769 11
-2.7629888 -2.7281499 0.64797634 36
-2.7874534 -2.7187321 0.64969522 36
-2.8211524 -2.7180264 0.65344554 35
-0 -0 0 10
-2.9075441 -2.7332695 0.6650089 43
-3.0617685 -2.8430882 0.69469869 18
-3.0223844 -2.772167 0.68251026 27
-2.9888346 -2.7078068 0.67172819 38
-3.0370402 -2.717742 0.67844748 16
-3.0358987 -2.6833551 0.67469716 25
-3.0634663 -2.6744213 0.67704111 17
-3.0932822 -2.6671851 0.6798538 14
-3.1216202 -2.6584024 0.68235403 21
-3.1499665 -2.6493719 0.68485421 23
-2.3137529 -1.9217986 0.50952816 25
-2.3140476 -1.8981677 0.50718421 29
-2.3126049 -1.8733623 0.50452775 20
-2.3186576 -1.8548175 0.50343394 28
-2.3090701 -1.8240219 0.49921486 34
-2.3062017 -1.7988828 0.49640214 33
-2.310154 -1.7792732 0.49499577 22
-2.3045192 -1.7525071 0.49171427 26
-2.3057518 -1.7312161 0.48983914 34
-2.3068099 -1.7099761 0.48796397 36
-2.3005219 -1.6835378 0.48468247 34
-2.306005 -1.6659193 0.48374492 23
-2.304122 -1.6431347 0.48140097 36
-2.3036618 -1.6215736 0.47936958 37
-2.3046465 -1.6012076 0.47765067 37
-2.3079119 -1.5825669 0.47640058 36
-2.3093994 -1.5628392 0.47483796 23
-2.2951272 -1.5327284 0.47030637 31
-2.2978914 -1.5142682 0.46905628 34
-2.1779735 -1.4161284 0.44467938 5
-2.1999221 -1.4112731 0.44717959 10
-2.1851733 -1.3829547 0.44280425 8
-2.1969688 -1.3716135 0.44342929 4
-0 -0 0 5
-2.20435 -1.3389083 0.44171041 24
-2.1837175 -1.3080959 0.43639749 89
-2.2155123 -1.3087418 0.44077283 8
-2.2055793 -1.2846806 0.43749133 11
-2.2039995 -1.2657111 0.43577245 13
-2.2117243 -1.2521638 0.43577245 134
-2.2021172 -1.22894 0.4326472 16
-2.2208662 -1.221595 0.43467861 19
-2.2283199 -1.2079451 0.43467861 15
-0 -0 0 8
-2.2490933 -1.1837304 0.43577245 16
-2.3597748 -1.2235726 0.45421138 86
-2.3786724 -1.2149124 0.45624277 97
-2.4010813 -1.2078421 0.45889923 88
-2.4270325 -1.2022966 0.46218073 101
-2.4609942 -1.2003759 0.46686861 78
-2.5065973 -1.2036431 0.47358787 96
-2.5425093 -1.2017508 0.47858825 77
-2.5713272 -1.1961288 0.48233855 87
-2.613642 -1.1963664 0.48843277 105
-2.656055 -1.1961291 0.49452698 330
-2.697659 -1.1950155 0.50046498 94
-2.6823044 -1.1685752 0.4965584 150
-2.8138015 -1.2053951 0.51796633 84
-2.860285 -1.2045966 0.52468556 88
-2.9187264 -1.2081851 0.53343624 86
-2.9709134 -1.2084949 0.54109311 94
-3.0112898 -1.2034426 0.54671854 117
-3.0517147 -1.1979398 0.55234396 114
-3.1087725 -1.1983824 0.56078213 80
-3.1631775 -1.1971201 0.56875145 80
-3.2112012 -1.1928263 0.57562703 95
-3.2407308 -1.1812208 0.57937729 72
-3.2330375 -1.1559913 0.57687712 78
-3.1962638 -1.1207659 0.56953281 70
-3.1787958 -1.0927814 0.56546998 75
-3.1704655 -1.0682086 0.5629698 82
-3.1741464 -1.0478057 0.56250101 89
-3.1767569 -1.0270939 0.56187594 101
-3.1782911 -1.0060914 0.56109464 78
-3.1787438 -0.98481631 0.56015706 86
-3.181891 -0.96443355 0.55968827 80
-3.1839609 -0.94376844 0.55906326 81
-3.1830513 -0.92228931 0.55796939 80
-3.179147 -0.90004939 0.5564068 64
-3.1731863 -0.87736559 0.55453163 85
-3.1699278 -0.85556138 0.55312526 87
-3.1674769 -0.83408195 0.55187517 105
-3.1658385 -0.81291062 0.55078137 90
-3.1678925 -0.79275042 0.55031258 110
-3.1688585 -0.77236164 0.5496875 85
-3.1687329 -0.75176275 0.54890621 77
-3.1713612 -0.73186123 0.5485937 105
-3.1651912 -0.71000898 0.54687476 90
-3.1588724 -0.68826008 0.54515588 98
-3.1562719 -0.66743344 0.54406208 103
-3.1545024 -0.64686316 0.5431245 96
-3.1593809 -0.62768793 0.54328078 131
-3.1525037 -0.60623747 0.5415619 87
-3.1493669 -0.58561784 0.54046804 86
-3.1509564 -0.56593323 0.54015553 109
-3.1514502 -0.54608244 0.53968674 80
-3.1917615 -0.5329209 0.54562467 33
-1.2114345 -0.19439477 0.22778763 26
-1.2086999 -0.18635462 0.22716257 32
-1.2078665 -0.17864503 0.22685005 21
-1.20894 -0.17123035 0.22685005 33
-1.2129041 -0.16420767 0.22731884 38
-1.2109503 -0.15638189 0.22685005 39
-1.2148279 -0.1493111 0.22731884 29
-1.2167022 -0.14196903 0.22747509 44
-1.2185321 -0.13460957 0.22763136 34
-1.216388 -0.12682205 0.22716257 30
-1.2063307 -0.11829229 0.22544369 24
-1.2001489 -0.11025345 0.22434986 32
-1.1958824 -0.10246422 0.22356854 23
-1.1964886 -0.095124491 0.22356854 29
-1.1921245 -0.087418422 0.22278723 50
-1.1906675 -0.079969019 0.22247471 22
-1.1921216 -0.072722174 0.22263098 47
-1.1955041 -0.065569311 0.22309977 50
-1.2018031 -0.05852275 0.22403733 36
-1.1991792 -0.051020611 0.22356854 49
-1.1955214 -0.04351664 0.2229435 61
-1.1967531 -0.036210429 0.22309977 38
-1.1932255 0.087497383 0.20863102 26
-1.1897073 0.094579078 0.20819743 29
-1.1910762 0.10204808 0.2084865 31
-1.1904275 0.10935446 0.2084865 34
-1.1857954 0.11626663 0.20790838 29
-1.1791553 0.12291896 0.2070412 33
-1.1744453 0.1297134 0.20646308 27
-1.1726445 0.13680159 0.20631856 26
-1.1786571 0.14484584 0.20733026 27
-1.1718587 0.15130912 0.20646308 26
-1.1718887 0.15863036 0.20660761 34
-1.1777503 0.16679595 0.20761932 25
-1.1776835 0.17416508 0.20776385 34
-1.1765926 0.18138793 0.20776385 30
-1.1754575 0.18860395 0.20776385 30
-1.1742781 0.19581288 0.20776385 31
-1.1808532 0.20437202 0.20892008 29
-1.1863935 0.21284349 0.20993178 35
-1.1889559 0.22084564 0.2105099 31
-1.1953509 0.2296377 0.21166612 33
-1.1997416 0.23812933 0.2125333 28
-1.2011654 0.2460849 0.21296689 32
-1.2025367 0.25406685 0.21340047 44
-1.2019218 0.26165211 0.21354501 29
-1.1973977 0.26837006 0.21311142 35
-1.1976564 0.2761586 0.21340047 34
-1.1612858 0.2752524 0.20819743 10
-3.6990011 0.90339935 0.59004277 9
-3.556149 0.89162278 0.56937516 57
-3.5276139 0.907502 0.56590647 128
-3.5267625 0.93039352 0.56662911 152
-3.5286283 0.95408446 0.56778532 123
-3.5274754 0.97703987 0.56850797 169
-3.5318844 1.0016388 0.5700978 165
-3.5351739 1.0260522 0.5715431 171
-3.4633663 1.0282706 0.56157058 75
-3.3727322 1.023892 0.54870754 34
-3.3229184 1.0310638 0.54205918 73
-3.3033254 1.0472425 0.54003578 89
-3.2987201 1.0681019 0.54032487 80
-3.2977407 1.0901878 0.54119205 73
-3.2956765 1.1119851 0.5419147 61
-3.3009531 1.1363773 0.54379356 55
-3.3023198 1.1595634 0.54509431 56
-3.3100464 1.1851461 0.54740679 50
-3.3147945 1.2098483 0.54928565 45
-3.3610926 1.2501901 0.55766833 89
-3.3320792 1.262718 0.55434418 88
-3.2670424 1.261029 0.54538339 74
-3.2058372 1.2600394 0.53700072 74
-3.161303 1.2649696 0.53121954 84
-3.0902584 1.2585683 0.52124703 58
-3.0276394 1.2547562 0.51257533 80
-2.9788601 1.2559955 0.50607151 69
-2.9329088 1.2578551 0.50000131 74
-2.8661911 1.2500923 0.4906069 54
-2.8195779 1.2503917 0.48439217 61
-2.7730703 1.2501669 0.47817743 48
-2.7122827 1.2428182 0.46965021 60
-2.6759067 1.2460593 0.46502531 71
-2.6351228 1.2467834 0.45967773 58
-2.6060236 1.2526319 0.45620903 57
-2.5645063 1.2520877 0.45071694 64
-2.5346174 1.2568011 0.44710371 62
-2.50035 1.2589684 0.44276786 75
-2.4740801 1.2648201 0.43973273 64
-2.4258814 1.2589926 0.4330844 68
-2.2054236 1.1616943 0.39796388 21
-1.9853868 1.0612754 0.36269882 13
-1.2919123 0.70034629 0.248521 117
-1.2771914 0.70252901 0.24678665 163
-1.2780387 0.71324986 0.24765383 113
-1.2624493 0.71473187 0.24577495 156
-1.2434596 0.71407574 0.24331796 195
-1.2364908 0.72019589 0.24288437 213
-1.2371578 0.730793 0.24375154 229
-1.2351958 0.73989779 0.24418513 227
-1.2331685 0.74900597 0.24461871 199
-1.2234967 0.75344121 0.24375154 243
-1.2314346 0.76880473 0.24591948 357
-1.2258584 0.77581638 0.24577495 442
-1.1894428 0.76299524 0.24028285 205
-1.186397 0.77135926 0.2405719 168
-1.1791643 0.77698892 0.24013832 197
-1.175197 0.7847597 0.24028285 215
-1.1703597 0.79195583 0.24028285 446
-1.1654783 0.7991221 0.24028285 384
-1.1784209 0.8186934 0.24346249 256
-1.1725665 0.82533842 0.24331796 222
-1.170701 0.83481824 0.24389607 235
-1.1663582 0.84256589 0.24404061 247
-1.1619645 0.85029167 0.24418513 209
-1.1591086 0.85917497 0.24461871 216
-1.1577692 0.86924469 0.24534136 217
-1.1539881 0.87753141 0.24563041 209
-1.1540662 0.88882643 0.24664213 219
-1.156388 0.9019829 0.24808741 186
-1.1554878 0.91274518 0.24895458 108
-1.1537265 0.92291158 0.24967723 179
-1.1703253 0.94805324 0.25386858 338
-1.1621925 0.95333195 0.25343499 242
-1.1547997 0.9591794 0.25314593 253
-1.1496493 0.96688455 0.25329044 242
-1.1421893 0.97263628 0.25300139 271
-1.1376976 0.98091972 0.25329044 301
-1.1294225 0.98592812 0.25285685 462
-1.1255745 0.99480718 0.25329044 370
-1.1076593 0.99112844 0.25097799 275
-1.1008241 0.99724138 0.25083345 216
-1.0968707 1.0059853 0.25126705 246
-1.0993725 1.0207828 0.25300139 150
-1.0938089 1.0281875 0.25314593 189
-1.0960747 1.043072 0.25488028 314
-1.0946383 1.0545872 0.25589198 364
-1.1001801 1.0730382 0.25834897 486
-1.0879468 1.0742025 0.25719273 358
-1.0841323 1.0836581 0.25777084 238
-1.0948375 1.1078984 0.26138407 214
-1.0769684 1.1032578 0.25907162 300
-1.0749828 1.1148349 0.26008332 284
-1.1342673 1.1909604 0.27410263 186
-1.1316808 1.2029459 0.27511433 161
-1.1242784 1.2098672 0.27511433 174
-0.85541242 0.93152976 0.21860352 142
-0.84171128 0.92795855 0.21686918 185
-0.84061873 0.9382689 0.21788087 165
-0.84336156 0.95305032 0.21975975 107
-1.0723261 1.2273809 0.27193469 131
-1.0654206 1.2346871 0.2720792 165
-1.0507705 1.2329119 0.27048939 209
-1.0368191 1.2317613 0.2690441 230
-1.0248177 1.2327703 0.2680324 231
-1.0115883 1.2321482 0.26673165 217
-1.000896 1.2344867 0.266009 200
-0.98527008 1.2305574 0.26413012 208
-0.97463536 1.2326964 0.26340747 212
-0.9627949 1.2331907 0.26239577 229
-0.94977814 1.232018 0.26109502 249
-0.93501604 1.2283689 0.25936067 205
-0.91855311 1.2222109 0.25719273 194
-0.90396839 1.2182828 0.25545838 211
-0.88946664 1.2142222 0.25372404 217
-0.8785243 1.2148435 0.25285685 198
-0.86645943 1.2137647 0.25170064 184
-0.8567183 1.2158211 0.2511225 214
-0.84698468 1.2178037 0.2505444 211
-0.83502167 1.2164479 0.24938817 184
-0.8231073 1.2149915 0.24823195 207
-0.81179178 1.2142577 0.24722023 228
-0.80051631 1.2134312 0.24620853 208
-0.79089922 1.2150013 0.24563041 208
-0.78075898 1.2156663 0.24490778 185
-0.76958263 1.2145802 0.24389607 187
-0.75897288 1.2142423 0.24302889 216
-0.7494337 1.2155057 0.24245079 188
-0.73836726 1.2141602 0.24143909 217
-0.7283622 1.2144228 0.24071644 205
-0.71938789 1.2163129 0.24028285 186
-0.70992005 1.2172834 0.23970473 208
-0.70293009 1.2224746 0.23984927 187
-0.69541591 1.2267647 0.23984927 47
-0.69028533 1.2353295 0.2405719 40
-0.67601943 1.227402 0.2385485 15
-0.66800416 1.2306567 0.23840398 18
-0.65531474 1.2251303 0.23681416 23
-0.65008819 1.233507 0.2375368 23
-0.63977593 1.2322012 0.23666963 16
-0.63040394 1.2325783 0.23609151 12
-0.62238473 1.2355391 0.23594698 16
-0.61435288 1.2384479 0.23580246 20
-0.60587531 1.2404152 0.2355134 20
-0.60467374 1.2574912 0.23768133 9
-0.59272081 1.2522305 0.23623604 16
-0.58377486 1.2531519 0.23580246 61
-0.58224815 1.270208 0.23797038 36
-0.57769167 1.2809755 0.23912662 14
-0.56942034 1.2835912 0.2389821 13
-0.56429821 1.2934119 0.2399938 31
-0.55907691 1.3032176 0.2410055 33
-0.55567521 1.3175682 0.24273984 186
-0.54077327 1.3044939 0.24013832 69
-0.54207259 1.3307047 0.24375154 267
-0.52765977 1.3183835 0.24129455 194
-0.52606326 1.3381778 0.24389607 28
-0.51357514 1.3302997 0.24216172 26
-0.49560454 1.3075104 0.23811492 14
-0.48653972 1.3077437 0.23768133 13
-0.47749075 1.3079151 0.23724775 12
-0.46479672 1.2977746 0.23522434 22
-0 0 0 8
-0.44401526 1.2893428 0.23305641 12
-0.43293929 1.2826649 0.23161112 30
-0.41824359 1.2646232 0.22843148 85
-0.40256941 1.2426838 0.22467373 300
-0.40806299 1.2866427 0.231033 31
-0.39957556 1.2872318 0.23074394 31
-0.39425021 1.2981827 0.2320447 25
-0.39217627 1.320502 0.23507981 55
-0.38791752 1.3361905 0.23710321 77
-0.37998074 1.3394977 0.23724775 79
-0.36806712 1.3284508 0.23522434 35
-0.35501578 1.3125316 0.23247829 22
-0.35022724 1.3271257 0.23435716 12
-0.34035704 1.3225403 0.23334546 19
-0.33271548 1.3265237 0.23363452 13
-0.32410181 1.3266174 0.23334546 11
-0.31664005 1.3314697 0.23377904 12
-0.30890873 1.3353158 0.23406811 18
-0.30092585 1.3381517 0.23421264 9
-0.28976461 1.3264366 0.23218924 15
-0.2797806 1.3194761 0.23088847 13
-0.27148071 1.3201987 0.23074394 9
-0.26356754 1.3228102 0.23088847 13
-0.25246111 1.3088543 0.228576 14
-0.24496713 1.3132975 0.2290096 17
-0.23760274 1.3186717 0.22958772 22
-0.22933841 1.3191298 0.22944318 16
-0.22156537 1.3224642 0.22973225 18
-0.2123501 1.3169597 0.22872053 15
-0.20532002 1.3250836 0.22973225 14
-0.19718559 1.3263185 0.22973225 19
-0.18848915 1.3235844 0.22915412 17
-0.17903791 1.3149104 0.22770883 18
-0.17071317 1.3140215 0.22741978 13
-0.16300905 1.3179905 0.22785336 22
-0.15457526 1.3160174 0.22741978 18
-0.14541213 1.3071058 0.22597449 25
-0.13697918 1.3040367 0.22539638 12
-0.12878227 1.302883 0.22510731 18
-0.12123755 1.3085755 0.22582996 18
-0.11345907 1.3122525 0.22626355 29
-0.10540511 1.312924 0.22626355 19
-0.097202666 1.3115723 0.22597449 18
-0.089417964 1.3160932 0.22655261 23
-0.081040196 1.3116786 0.22582996 27
-0.073206671 1.3161033 0.22640808 18
-0.064697713 1.3076327 0.22510731 23
-0.056798857 1.3109709 0.22554091 26
-0.048969109 1.3172278 0.22640808 23
-0.040617507 1.3086021 0.22510731 31
-0.032658543 1.3117943 0.22554091 20
-0.024626585 1.3129593 0.22568543 34
-0.01659316 1.3150645 0.22597449 19
-0.0085735498 1.324047 0.22727525 24
-0.00045566444 1.3122007 0.22554091 30
0.0075760228 1.3092104 0.22510731 22
0.015647091 1.3121074 0.22554091 24
0.023697736 1.3119868 0.22554091 25
0.03174749 1.3118167 0.22554091 22
0.039796047 1.3115972 0.22554091 24
0.047806147 1.3103395 0.22539638 17
0.056189552 1.31793 0.22655261 32
0.064226069 1.3165722 0.22640808 13
0.072137736 1.3131894 0.22597449 21
0.080193952 1.3127221 0.22597449 21
0.088247158 1.3122053 0.22597449 15
0.096003711 1.3076919 0.22539638 16
0.10410514 1.3080646 0.22554091 23
0.11264192 1.313316 0.22640808 17
0.1209726 1.3155559 0.22684166 19
0.12982261 1.3226664 0.2279979 20
0.13814303 1.3238131 0.22828695 18
0.30266428 2.7262692 0.43452969 21
0.31950229 2.7253435 0.43467423 41
0.33597535 2.7213678 0.43438518 30
0.35241166 2.7172925 0.4340961 20
0.17922054 1.3228743 0.22886507 13
0.38573048 2.7127633 0.4340961 20
0.19529502 1.3195966 0.22872053 19
0.20338824 1.3183734 0.22872053 25
0.21052746 1.3112396 0.22785336 16
0.21938768 1.3148024 0.228576 15
0.22897831 1.3222052 0.22987677 14
0.47881833 2.6606977 0.42874855 15
0.24791129 1.3338859 0.2320447 12
0 0 0 12
0.26600361 1.3394767 0.23334546 14
0.27461651 1.3397577 0.23363452 16
0.28242099 1.3361115 0.23334546 6
0.28702012 1.3179203 0.23088847 8
0 0 0 10
0.30071571 1.3036951 0.22929865 13
0.30756357 1.2970123 0.228576 13
0.3166914 1.2999066 0.22929865 16
0.32345676 1.2931404 0.228576 20
0.32891685 1.2815492 0.22713073 15
0.33778495 1.2833337 0.22770883 45
0.34099859 1.2640448 0.22510731 19
0.34002194 1.2304627 0.22033787 5
0.34675467 1.2254976 0.21990427 17
0.35371545 1.2214465 0.21961522 25
0.35500079 1.1983864 0.21643558 6
0.36378601 1.2009194 0.21715823 15
0.36791876 1.1882701 0.21556841 19
0.37370616 1.1812745 0.21484576 12
0.3818627 1.1817832 0.21527936 12
0.3906613 1.1841148 0.21600199 5
0.39411962 1.1704459 0.21426764 16
0.40290594 1.1726831 0.21499029 8
0.40845311 1.1655213 0.21426764 9
0.41860169 1.1713765 0.21556841 18
0.42442295 1.1650683 0.21499029 7
0.44364801 1.1948979 0.2200488 51
0.45307711 1.1977043 0.22091597 203
0.45899108 1.1912097 0.22033787 236
0.46882749 1.1948166 0.22134957 220
0.4754141 1.1900803 0.2210605 240
0.48345444 1.1889733 0.22134957 264
0.49377406 1.1932963 0.22250579 221
0.50224096 1.192979 0.22293939 189
0.50955153 1.1898749 0.22293939 218
0.51763469 1.1885396 0.22322844 227
0.52531916 1.1862454 0.22337297 219
0.53380901 1.1857055 0.22380656 230
0.54272449 1.1860055 0.22438467 236
0.55124563 1.1853436 0.22481826 254
0.56062615 1.1864102 0.22554091 222
0.5704695 1.1882979 0.22640808 245
0.57905352 1.1874422 0.22684166 214
0.58852834 1.1882983 0.22756431 233
0.59759003 1.1881993 0.22814243 231
0.60667253 1.1880336 0.22872053 207
0.61623168 1.1886791 0.22944318 212
0.62535989 1.1883767 0.2300213 224
0.63497448 1.1888791 0.23074394 235
0.64414644 1.1884388 0.23132206 199
0.65381444 1.188797 0.2320447 204
0.66447675 1.1908085 0.23305641 226
0.67421186 1.1910124 0.23377904 192
0.68446785 1.1919992 0.23464622 180
0.6957587 1.1946139 0.23580246 209
0.7076112 1.1979864 0.23710321 187
0.71647608 1.1961673 0.2375368 202
0.72894579 1.2002016 0.2389821 159
0.73733544 1.1973906 0.23927115 170
0.7462427 1.1953607 0.23970473 201
0.75568259 1.194102 0.24028285 178
0.7646001 1.1919401 0.24071644 182
0.77513963 1.1922009 0.24158362 160
0.78571099 1.1923771 0.24245079 164
0.79576343 1.1916459 0.24317344 161
0.80528116 1.1900169 0.24375154 156
0.81760991 1.192394 0.24505231 171
0.82660663 1.1897913 0.24548589 156
0.83845311 1.1911664 0.24664213 200
0.84804678 1.1892201 0.24722023 162
0.857068 1.1863991 0.24765383 164
0.86784142 1.1859062 0.248521 190
0.8780511 1.1845312 0.24924365 188
0.88768166 1.1822845 0.24982175 178
0.90031558 1.1839 0.2511225 171
0.90998048 1.1814873 0.25170064 178
0.92208642 1.1821194 0.25285685 181
0.93300623 1.1810952 0.25372404 164
0.94456679 1.1807536 0.25473574 178
0.95802844 1.1826196 0.25618103 205
0.97029197 1.1828353 0.25733727 186
0.98196125 1.1821842 0.25834897 215
0.99748385 1.185975 0.26022783 197
1.0105211 1.186608 0.26152861 190
1.0236034 1.1871253 0.26282936 233
1.0360787 1.1867816 0.2639856 181
1.0472764 1.1848476 0.26485276 179
1.0604703 1.1850312 0.26615351 173
1.0723759 1.1836315 0.26716521 179
1.0869817 1.1850452 0.26875505 147
1.0989494 1.1834254 0.26976675 164
1.1136513 1.1845851 0.27135655 151
1.1284084 1.1856085 0.27294639 153
1.1445938 1.1879193 0.27482525 147
1.159467 1.18866 0.27641508 148
1.1730005 1.1878556 0.27771583 155
1.1886677 1.1890274 0.27945018 137
1.2043931 1.1900514 0.28118452 126
1.2152154 1.1860923 0.28190717 144
1.2310241 1.1868491 0.28364152 111
1.2418684 1.1826829 0.28436416 108
1.2570349 1.1824931 0.285954 108
1.2715201 1.1814884 0.28739926 105
1.2882285 1.1823561 0.28927815 118
1.3049949 1.1830628 0.29115704 135
1.3225559 1.1842675 0.29318044 138
1.3379554 1.1833358 0.29477024 124
1.3526474 1.1816089 0.29621553 128
1.3711163 1.1829756 0.29838347 135
1.3873918 1.1822358 0.30011782 125
1.401437 1.1794306 0.30141857 112
1.4200681 1.1802894 0.30358651 108
1.4379969 1.1803362 0.30560991 129
1.4529029 1.1777166 0.30705521 120
1.4693764 1.1761942 0.30878955 114
1.4812256 1.1708349 0.30965671 130
1.4954054 1.1671993 0.31095749 129
1.5111644 1.1646407 0.3125473 47
1.5458554 1.1763018 0.31760582 5
1.551461 1.1656067 0.31731677 5
1.5498377 1.1495861 0.31572694 9
1.5624532 1.1441436 0.31673864 6
3.7844946 2.7337334 0.71578294 10
3.8052263 2.7133322 0.71650559 60
3.8266592 2.6933486 0.71737278 70
3.8203552 2.6540163 0.71332598 54
3.839833 2.6327624 0.71390408 70
3.8288665 2.5908592 0.70913464 52
3.8389304 2.563472 0.70812291 59
3.8504553 2.5371473 0.70740026 73
3.8518453 2.5043082 0.7049433 66
3.8571427 2.4742179 0.70320892 36
2.0525243 1.2995648 0.38871405 58
2.0730522 1.2948031 0.39088196 63
2.0910704 1.2882822 0.3926163 60
2.1158531 1.2856963 0.39550689 54
2.1372862 1.2808212 0.39781937 46
2.1595907 1.2762344 0.40027633 52
2.1759326 1.2679372 0.40172163 62
2.2317314 1.2821437 0.40981525 32
2.3084538 1.3074062 0.42137757 11
3.9696298 2.2152064 0.69786137 18
2.3303938 1.282316 0.42238927 17
2.3512688 1.2750626 0.42455721 12
3.9442632 2.1068153 0.68702167 9
3.9194586 2.0627682 0.68080693 22
3.909199 2.026844 0.67704922 34
3.9180365 2.0010202 0.67647105 28
3.9213998 1.9724978 0.67502582 28
2.585495 1.2811567 0.45534185 7
3.9035048 1.903852 0.66823292 108
3.9079762 1.8764403 0.66707671 103
3.9122584 1.8490454 0.6659205 119
3.9271195 1.8266737 0.6664986 140
3.9400535 1.8033662 0.66678762 182
3.946533 1.7771263 0.66606498 172
3.9537435 1.7512754 0.66548687 168
3.9553421 1.7230334 0.66404158 210
3.9803946 1.7049612 0.66635406 285
4.0163183 1.6912514 0.67040086 22
4.0348496 1.6699795 0.67170161 37
4.0413537 1.6437004 0.6711235 36
4.057796 1.6214406 0.67213523 40
4.0529294 1.5907315 0.66982275 35
4.0312185 1.5537424 0.66490877 24
0 0 0 6
3.7002444 1.3743722 0.61042136 5
0 0 0 5
0 0 0 5
3.6035128 1.2635044 0.5916326 18
3.5906088 1.2342993 0.58845299 10
3.6046793 1.2144541 0.58946466 12
3.6139429 1.192933 0.58975375 17
3.6202528 1.1704317 0.58960921 11
3.6301966 1.1490911 0.59004277 15
3.7553382 1.1633608 0.60810894 41
3.8324873 1.1615139 0.61880404 142
3.8793912 1.1497743 0.62487423 136
3.9462545 1.1432791 0.63397956 274
4.0169902 1.1370828 0.64366305 167
4.0992422 1.1332216 0.6550808 190
4.1519775 1.1204095 0.66201818 265
4.1539888 1.0936539 0.66129553 267
4.1548705 1.0666703 0.66042835 219
4.1632571 1.0416361 0.66071743 224
4.1676474 1.0156033 0.66042835 229
4.1776519 0.99092436 0.66100651 204
4.1682258 0.96171701 0.65869403 222
4.1711516 0.93547434 0.65826046 209
4.1748791 0.90944231 0.65797138 192
4.1784444 0.88339984 0.6576823 181
4.1954188 0.86012632 0.65941668 151
4.1812057 0.83051723 0.65652609 145
4.1871948 0.80503279 0.65667063 103
4.1852455 0.77806139 0.6556589 125
4.1782532 0.75027114 0.65392458 121
4.1740026 0.72310203 0.65262383 118
4.1900735 0.69942904 0.65435815 143
4.1796308 0.6713562 0.65219021 109
4.1895394 0.6466018 0.6530574 111
4.2081113 0.6230529 0.65522534 116
4.1883411 0.59389317 0.65175664 108
4.1889648 0.56778491 0.65132308 113
4.1864815 0.54131156 0.65045589 135
4.189724 0.51561356 0.65045589 118
4.1810145 0.48852149 0.64872152 112
4.1799994 0.46242395 0.64814341 116
4.1866946 0.43717721 0.64872152 120
4.1991463 0.41244441 0.65016681 108
4.1897736 0.38558629 0.64843249 112
4.1920609 0.35987106 0.64843249 104
4.2030673 0.33484706 0.64973325 100
4.2030692 0.3089067 0.64944416 100
4.2019238 0.28291276 0.6490106 91
4.2144451 0.25778642 0.65060043 110
4.200139 0.231057 0.64828795 77
4.2034545 0.2053771 0.64857697 103
4.187829 0.17886822 0.64612001 96
4.1918144 0.15327646 0.64655358 97
4.1966319 0.12767233 0.64713174 102
4.1864548 0.10165869 0.64554191 127
4.1860108 0.075951502 0.64539737 124
4.1824403 0.050218783 0.64481926 107
4.1975117 0.024637844 0.6469872 101
4.2025313 -0.0011207666 0.64770985 111
4.2044244 -0.026920216 0.64799887 99
4.1853809 -0.052476607 0.64525282 110
4.1810231 -0.078081623 0.64467472 136
4.1982708 -0.10418124 0.64727622 114
4.1926074 -0.12978493 0.64655358 121
4.1887655 -0.15539695 0.64612001 119
4.1906991 -0.1812249 0.64655358 127
4.1904964 -0.20698422 0.64669812 132
4.197051 -0.23313396 0.64785439 103
4.2014675 -0.25924948 0.64872152 125
4.206708 -0.28549525 0.64973325 125
4.2078371 -0.31152174 0.65016681 118
4.2019014 -0.33701715 0.6495887 142
4.2145414 -0.36407471 0.65175664 144
4.2181396 -0.39047667 0.65262383 120
4.198925 -0.41469342 0.65016681 140
4.2071261 -0.44158894 0.65175664 124
4.2013869 -0.46706626 0.65132308 125
4.202373 -0.49329925 0.65190119 130
4.196321 -0.51871026 0.65146756 112
4.1920781 -0.54432094 0.65132308 96
4.1955223 -0.57096869 0.65233475 124
4.1733279 -0.59404659 0.6495887 114
4.1705828 -0.61978823 0.64973325 125
4.1657238 -0.64521503 0.6495887 101
4.1734085 -0.67265594 0.65132308 100
4.1721301 -0.69874197 0.65175664 106
4.1667895 -0.72415882 0.6516121 126
4.156425 -0.74865806 0.65074492 128
4.1750975 -0.77850693 0.65421361 137
4.1673274 -0.80354732 0.65378004 115
4.1759038 -0.83181244 0.65580344 141
4.1823511 -0.85981393 0.65753782 144
4.1837726 -0.8868984 0.65854949 151
4.1734185 -0.91149586 0.65782684 166
4.1860886 -0.94121552 0.66057289 135
4.1831264 -0.9675529 0.66100651 125
4.1732607 -0.99228525 0.66042835 118
4.1276851 -1.0082358 0.65450269 35
2.9793601 -0.74681032 0.48251328 7
0 -0 0 4
0 -0 0 5
0 -0 0 3
0 -0 0 4
0 -0 0 4
0 -0 0 5
0 -0 0 4
0 -0 0 4
0 -0 0 5
0 -0 0 4
2.7979596 -0.90577233 0.46343547 6
0 -0 0 6
0 -0 0 4
0 -0 0 4
2.1429036 -0.75201476 0.36558941 16
2.0646622 -0.73877418 0.35417163 43
2.0656669 -0.75346625 0.35503879 50
2.0684233 -0.76888889 0.35619503 73
2.0682924 -0.78332072 0.35691768 167
2.0717542 -0.79920638 0.35821843 87
2.0668113 -0.81190336 0.35821843 128
2.0792432 -0.83156031 0.36096448 61
2.0521109 -0.83533746 0.35749578 56
2.0761938 -0.86004651 0.36212072 41
1.9149891 -0.80697477 0.33740628 73
1.8399893 -0.78865272 0.32627755 85
1.8323951 -0.79874003 0.32584396 102
1.8319815 -0.81197578 0.32656661 88
1.8278668 -0.82360834 0.32671115 114
1.8263763 -0.83645862 0.32728925 111
1.818519 -0.84639513 0.32685566 132
1.8115029 -0.85669029 0.32656661 136
1.8044289 -0.86693126 0.32627755 38
1.7795175 -0.86842781 0.32309791 92
1.7661786 -0.87537092 0.32179716 73
1.7457529 -0.87862015 0.31934017 30
1.6998097 -0.86857921 0.31269184 127
1.6803991 -0.87169379 0.31037936 54
1.6400086 -0.86352563 0.30459821 14
1.5805899 -0.84462303 0.29563743 21
1.5788558 -0.85619456 0.29621553 136
1.5441078 -0.84962791 0.29130155 68
1.4879092 -0.83059514 0.28277436 15
1.4750386 -0.83531541 0.28147358 13
1.455305 -0.83596146 0.27901658 35
1.432201 -0.8344022 0.27598149 61
1.4244996 -0.84166247 0.27554789 62
1.4142177 -0.84733218 0.27468073 82
1.4056108 -0.85393625 0.27410263 75
1.3784492 -0.84903681 0.27034485 121
1.3656633 -0.8527565 0.2690441 98
1.3487054 -0.85370231 0.2670207 98
1.3217988 -0.84805292 0.26326296 93
1.301646 -0.84642643 0.26066142 86
1.2807376 -0.8440398 0.25791538 97
1.2664878 -0.84583032 0.25632557 97
1.2489884 -0.8452571 0.25415763 89
1.2307284 -0.84394103 0.25184515 97
1.2141565 -0.84356356 0.24982175 97
1.1968273 -0.84244454 0.24765383 95
1.1771424 -0.83941948 0.24505231 93
1.1607468 -0.83850533 0.24302889 71
1.1460034 -0.83859181 0.24129455 75
1.1265361 -0.83498996 0.23869303 104
1.1174374 -0.83891284 0.23797038 79
1.1004616 -0.83675975 0.23580246 81
1.0866885 -0.8368479 0.23421264 86
1.0698372 -0.83436197 0.2320447 93
1.0592656 -0.83661288 0.231033 110
1.0386683 -0.83072227 0.22814243 85
1.0120366 -0.81962329 0.22409561 69
0.98481643 -0.80760127 0.21990427 39
0.985928 -0.81869137 0.2210605 46
0.98391318 -0.82727545 0.22163862 104
0.96827853 -0.82430744 0.21961522 114
0.96020687 -0.82764626 0.2190371 145
0.9484061 -0.82766068 0.21773635 132
0.93293703 -0.82428229 0.21571293 104
0.91901928 -0.82206637 0.21397859 103
0.91249228 -0.82636005 0.21368954 113
0.90157491 -0.82658833 0.2125333 111
0.89213854 -0.82806164 0.21166612 107
0.88055682 -0.82741553 0.21036537 122
0.8733145 -0.83075488 0.20993178 96
0.8646403 -0.83266246 0.20920913 95
0.85031301 -0.82896352 0.20733026 118
0.83817476 -0.82720774 0.20588498 122
0.8295868 -0.82883477 0.20516233 117
0.81753564 -0.82686603 0.20371704 144
0.80830276 -0.8276152 0.20284986 131
0.79840529 -0.82756954 0.20183817 137
0.78990287 -0.82886779 0.20111552 128
0.78005964 -0.82865065 0.20010382 129
0.76890296 -0.82689345 0.19880305 138
0.75980318 -0.82721913 0.19793588 133
0.75205672 -0.82893145 0.19735776 133
0.74497753 -0.8313176 0.19692418 112
0.7300368 -0.82474864 0.19475624 171
0.72236049 -0.82622999 0.19417813 148
0.71340179 -0.82614911 0.19331096 144
0.70896053 -0.83126444 0.19345549 129
0.69684339 -0.82726663 0.19186567 166
0.69428229 -0.83457232 0.19244379 124
0.68475717 -0.83345997 0.19143207 129
0.6696685 -0.82534075 0.18911962 164
0.66088444 -0.82479692 0.18825245 159
0.65029305 -0.8218466 0.18695168 143
0.64158797 -0.82113886 0.18608451 153
0.63291621 -0.82035542 0.18521734 158
0.62427831 -0.81949663 0.18435016 154
0.61567497 -0.81856292 0.18348299 141
0.60887372 -0.81993991 0.18304941 156
0.60032648 -0.81886828 0.18218224 88
0.5941323 -0.82093185 0.18189317 51
0.58276689 -0.81569815 0.18030335 131
0.58002818 -0.82249582 0.18088147 105
0.56763405 -0.81547302 0.1790026 132
0.56150103 -0.81730819 0.17871353 137
0.5537039 -0.81663978 0.1779909 152
0.54923195 -0.82084495 0.17813542 141
0.54146391 -0.82006752 0.17741278 152
0.53803927 -0.8258636 0.17784636 125
0.52922344 -0.82331836 0.17683466 137
0.5241617 -0.82655013 0.17683466 126
0.51646131 -0.82555324 0.17611201 125
0.5113861 -0.82870662 0.17611201 125
0.50269753 -0.82590777 0.17510031 141
0.49863684 -0.83067471 0.17538938 120
0.48900333 -0.82604975 0.17408861 149
0.48044109 -0.82304847 0.17307691 161
0.47981468 -0.83370477 0.17437766 122
0.47420287 -0.83577198 0.17423314 110
0.46376419 -0.8291598 0.17264332 118
0.45580792 -0.82678699 0.17177615 138
0.44554177 -0.81999779 0.17018633 169
0.44236585 -0.82620776 0.17076445 155
0.43682742 -0.82803077 0.17061992 160
0.4317385 -0.83069551 0.17061992 128
0.42618349 -0.83244765 0.17047539 147
0.42017883 -0.83327878 0.17018633 158
0.41418007 -0.8340677 0.16989727 139
0.40558633 -0.82947755 0.16874105 165
0.39920494 -0.82927418 0.16830745 164
0.39157361 -0.82633966 0.16744028 178
0.38482761 -0.82513756 0.16686217 161
0.37852272 -0.82478374 0.16642858 189
0.37183067 -0.82348138 0.16585046 186
0.3643679 -0.8203184 0.16498329 205
0.35814288 -0.81981689 0.16454971 169
0.3515484 -0.81836027 0.16397159 176
0.34613663 -0.81958985 0.16382706 191
0.34147939 -0.8226127 0.16397159 183
0.3356804 -0.82285911 0.16368254 231
0.33025819 -0.82398432 0.16353801 191
0.32086083 -0.81494093 0.16180366 255
0.31585443 -0.81689435 0.16180366 251
0.30908641 -0.81418926 0.16108102 244
0.30270779 -0.81235969 0.1605029 252
0.29670188 -0.81141245 0.1600693 245
0.29105186 -0.81135404 0.15978025 231
0.28475955 -0.80938917 0.15920213 253
0.27978787 -0.81112117 0.15920213 242
0.27259621 -0.80625802 0.15819043 258
0.26795384 -0.80885518 0.15833496 248
0.26116112 -0.80483443 0.15746778 286
0.25591952 -0.80547827 0.15732326 282
0.25067985 -0.80608809 0.15717873 314
0.24544235 -0.80666405 0.1570342 279
0.24048813 -0.80815482 0.1570342 296
0.23524979 -0.80866474 0.15688968 302
0.229745 -0.80818868 0.15660061 304
0.22451833 -0.80862933 0.15645608 322
0.21980998 -0.81094712 0.15660061 337
0.21407497 -0.80940968 0.15616703 325
0.20910449 -0.81070799 0.15616703 333
0.20340642 -0.80909586 0.15573344 339
0.19820407 -0.80936724 0.15558891 336
0.19277793 -0.80864251 0.15529986 387
0.18781257 -0.8098101 0.15529986 363
0.18305641 -0.81191283 0.15544438 381
0.17786081 -0.81205392 0.15529986 312
0.17226157 -0.81022549 0.15486626 271
0.16669148 -0.80835903 0.15443268 262
0.16192086 -0.81033719 0.15457721 345
0.15657257 -0.80937195 0.15428816 324
0.15286753 -0.81712759 0.15529986 211
0.14575547 -0.80636257 0.15356551 331
0.14097361 -0.80821675 0.15371004 396
0.13519859 -0.80418628 0.15298739 437
0.13088828 -0.80890882 0.15356551 411
0.12531981 -0.80578482 0.15298739 392
0.12037324 -0.80653864 0.15298739 404
0.11542214 -0.80726206 0.15298739 403
0.11059934 -0.80893564 0.15313192 433
0.10525388 -0.80665493 0.15269834 392
0.10018177 -0.80630344 0.15255381 412
0.095003374 -0.8049373 0.15226474 417
0.090171114 -0.80648857 0.15240927 447
0.085425876 -0.80899501 0.15269834 439
0.080267467 -0.8075344 0.15240927 404
0.075130209 -0.806041 0.15212022 464
0.070014298 -0.804515 0.15183116 476
0.064919956 -0.80295664 0.1515421 444
0.059847377 -0.80136615 0.15125304 444
0.054862961 -0.800731 0.15110852 446
0.049828459 -0.79907721 0.15081947 472
0.044978552 -0.80035597 0.15096399 444
0.040066812 -0.80061686 0.15096399 428
0.035069671 -0.79887044 0.15067492 490
0.030238997 -0.80104828 0.15096399 443
0.0253531 -0.80220777 0.15110852 455
0.020382881 -0.8003698 0.15081947 485
0.015506868 -0.80245852 0.15110852 517
0.010594387 -0.80352795 0.15125304 560
0.0056472369 -0.80060941 0.15081947 482
0.00073576294 -0.79864997 0.1505304 504
-0.0041646753 -0.79863948 0.1505304 505
-0.0090649566 -0.79859889 0.1505304 542
-0.013889884 -0.79457092 0.14995229 503
-0.018765017 -0.79447073 0.14995229 539
-0.023639446 -0.79434067 0.14995229 524
-0.028439064 -0.79220301 0.14966322 582
-0.033428475 -0.79497927 0.15009682 518
-0.038354836 -0.79574752 0.15024135 530
-0.043291885 -0.79648513 0.15038587 543
-0.048055779 -0.79422933 0.15009682 587
-0.052995447 -0.79490674 0.15024135 538
-0.057871908 -0.79456657 0.15024135 515
-0.062904954 -0.79616916 0.1505304 528
-0.067618102 -0.79379654 0.15024135 552
-0.072670437 -0.79533726 0.1505304 513
-0.077744216 -0.79684573 0.15081947 510
-0.082735673 -0.79733777 0.15096399 559
-0.087736085 -0.79779851 0.15110852 529
-0.092629634 -0.79724514 0.15110852 521
-0.097641356 -0.79764378 0.15125304 504
-0.10291682 -0.79997337 0.15168664 491
-0.10782343 -0.79932678 0.15168664 462
-0.11342455 -0.8035481 0.15240927 490
-0.11864435 -0.80479443 0.15269834 475
-0.12358024 -0.80405128 0.15269834 467
-0.12851147 -0.80327785 0.15269834 434
-0.13343789 -0.8024742 0.15269834 486
-0.13835926 -0.80164033 0.15269834 459
-0.14257272 -0.7968812 0.15212022 417
-0.14764126 -0.79696405 0.15226474 441
-0.15271616 -0.79701471 0.15240927 447
-0.15721653 -0.79412186 0.15212022 445
-0.16228575 -0.79411143 0.15226474 415
-0.16777165 -0.79600453 0.15269834 425
-0.17286409 -0.79592675 0.15284286 405
-0.17948318 -0.80257386 0.15399909 436
-0.1835113 -0.79760146 0.15342098 393
-0.18977679 -0.80223608 0.15428816 379
-0.19516575 -0.80297887 0.15457721 384
-0.19912526 -0.79792738 0.15399909 406
-0.20500486 -0.8005234 0.15457721 376
-0.2096602 -0.79829377 0.15443268 355
-0.21429591 -0.7960372 0.15428816 399
-0.21917628 -0.7947073 0.15428816 337
-0.22350782 -0.79144377 0.15399909 368
-0.22835982 -0.79005742 0.15399909 331
-0.23433098 -0.79243529 0.15457721 246
-0.23976436 -0.79287606 0.15486626 220
-0.24462485 -0.79138994 0.15486626 207
-0.24947612 -0.78987408 0.15486626 198
-0.30405432 -0.94175696 0.17842448 29
-0.3412281 -1.0347519 0.19302189 14
-0.35010403 -1.0401384 0.19417813 12
-0.34970912 -1.0183251 0.19114302 11
-0.34873182 -0.99562293 0.18796338 13
-0 -0 0 8
-0.37382704 -1.0265861 0.19345549 16
-0.45676813 -1.2301357 0.22554091 10
-0.38815141 -1.0265472 0.19417813 10
-0.4593477 -1.1921327 0.22048239 7
-0.4347735 -1.1082616 0.20776385 5
-0.47504616 -1.1891617 0.22091597 9
-0.49167252 -1.2091316 0.22452921 9
-0 -0 0 6
-0.50839722 -1.2075651 0.22525184 9
-0.50018305 -1.1680528 0.21947069 8
-0.53465939 -1.2275337 0.22944318 9
-0 -0 0 4
-0 -0 0 7
-0.55840135 -1.2201825 0.22987677 5
-0.56838608 -1.2221143 0.23074394 9
-0.57417989 -1.2150267 0.23016582 8
-0 -0 0 6
-0.60686123 -1.2443383 0.23609151 9
-0.62856311 -1.2689534 0.24071644 7
-0 -0 0 4
-0 -0 0 4
-0 -0 0 4
-0.69413257 -1.3187897 0.2515561 5
-0.70501298 -1.3197402 0.25242329 7
-0.71073616 -1.3110418 0.25170064 8
-0.72975183 -1.3265883 0.25502479 6
-0.73498046 -1.3169036 0.25415763 6
-0.75525182 -1.3338863 0.25777084 4
-0 -0 0 4
-0 -0 0 5
-0.78925145 -1.335938 0.26051691 6
-0.8030346 -1.3404031 0.26210672 6
-0.81381583 -1.339677 0.26282936 10
-0 -0 0 5
-1.7069659 -2.7314405 0.50433713 17
-1.7342902 -2.7376292 0.50722772 19
-0 -0 0 5
-0 -0 0 5
-0 -0 0 6
-1.8229601 -2.7271407 0.51300889 15
-1.8379936 -2.7134469 0.51257533 18
-1.8618915 -2.7127211 0.51445419 11
-0 -0 0 6
-0 -0 0 4
-0 -0 0 6
-1.9551682 -2.7038877 0.52124703 28
-1.984007 -2.7085993 0.52428216 42
-2.0159261 -2.7170305 0.52803987 40
-2.0438597 -2.7196352 0.53078592 37
-2.0689027 -2.7180634 0.53280938 36
-2.0933988 -2.7155027 0.53468823 45
-2.1161132 -2.7104042 0.53613353 48
-2.1406858 -2.7074566 0.53801239 46
-2.1671576 -2.7066259 0.54032487 52
-2.1943231 -2.7063403 0.54278183 39
-2.2203097 -2.7042935 0.54494977 56
-2.2533147 -2.7103968 0.54870754 41
-2.275003 -2.7025738 0.54986376 63
-2.3043849 -2.7036211 0.55275434 60
-2.3390391 -2.7104001 0.55680114 50
-2.3653953 -2.707171 0.55896908 49
-2.3891761 -2.7007561 0.56055892 47
-2.4103255 -2.6912038 0.56157058 67
-2.442086 -2.6932182 0.5648948 53
-2.4732919 -2.6942148 0.56807441 52
-2.4938197 -2.6833358 0.56894159 68
-2.530586 -2.6895969 0.57327747 37
-1.2547064 -1.3181186 0.29968423 55
-1.2648318 -1.3125312 0.30011782 44
-1.2659472 -1.2976673 0.29867253 65
-1.2752773 -1.2912823 0.29896158 64
-1.2929772 -1.2932233 0.30098498 42
-2.7659187 -2.730849 0.60160512 20
-2.7904174 -2.7214236 0.60319495 61
-2.8127658 -2.7097411 0.60435116 71
-2.853718 -2.7156162 0.60926515 42
-2.9063864 -2.7319298 0.61649162 24
-2.9230943 -2.714045 0.61649162 57
-2.9798119 -2.732831 0.62444067 45
-2.9781859 -2.6978931 0.62082744 50
-2.9895205 -2.6749513 0.61981577 63
-3.0310929 -2.6788297 0.62472975 48
-3.0646224 -2.675142 0.6280539 35
-3.1019681 -2.6743729 0.6321007 43
-3.1371584 -2.6713216 0.63571393 62
-3.1656098 -2.6622086 0.63802642 62
-3.1879764 -2.6477907 0.63918263 41
-2.3249061 -1.9073945 0.4731189 15
-2.3196461 -1.879396 0.46993929 23
-2.3234055 -1.8589487 0.468494 17
-2.3200116 -1.8330082 0.46574795 20
-2.3132658 -1.8047464 0.46242377 20
-2.3180232 -1.7856901 0.46126753 23
-2.3139679 -1.7600576 0.45852149 21
-2.3096859 -1.7345426 0.45577544 25
-2.3083591 -1.7115028 0.4536075 18
-2.3116288 -1.6920496 0.45230675 17
-2.3139451 -1.6720418 0.45086145 32
-2.3152971 -1.6514952 0.44927165 23
-2.3132472 -1.6287179 0.44710371 13
-2.3150694 -1.60885 0.44565842 21
-2.3240812 -1.5940553 0.4455139 27
-2.3223433 -1.5720044 0.44349048 22
-2.3278301 -1.5549787 0.44276786 38
-2.3249314 -1.5325028 0.44059992 32
-2.2778702 -1.4815464 0.43077195 16
-0 -0 0 7
-0 -0 0 5
-0 -0 0 5
-2.1854527 -1.346368 0.40880355 11
-0 -0 0 5
-2.1559641 -1.2920026 0.40099898 149
-2.1945269 -1.2968583 0.40620202 13
-2.1981671 -1.2808796 0.4054794 7
-2.201694 -1.2649052 0.40475675 6
-2.1913283 -1.2411398 0.40172163 57
-2.2006309 -1.2286345 0.40201068 71
-2.2141981 -1.2184452 0.40302241 14
-2.2329433 -1.2109632 0.40490127 16
-2.2420774 -1.1981714 0.40519032 6
-2.2423809 -1.1807067 0.40403411 6
-2.3585258 -1.2233734 0.42195567 54
-2.376564 -1.2142766 0.42369002 73
-2.3989995 -1.2072264 0.42614701 70
-2.4267581 -1.2025801 0.42947119 76
-2.4652231 -1.2028406 0.43452969 90
-2.4966443 -1.1992493 0.43843198 85
-2.5370607 -1.1995429 0.44377956 82
-2.5739841 -1.1977168 0.448549 60
-2.6082802 -1.1942476 0.45288485 66
-2.6633837 -1.199741 0.46054491 166
-2.6815529 -1.1881821 0.46227926 77
-2.7214549 -1.1859237 0.4674823 77
-2.7914479 -1.1960686 0.47745478 63
-2.8434246 -1.1977228 0.48453671 74
-2.9019258 -1.2014307 0.4926303 89
-2.9486606 -1.1996218 0.49884507 70
-2.9780209 -1.1903126 0.50231373 102
-3.031328 -1.190081 0.5095402 83
-3.1041338 -1.1967072 0.51980174 93
-3.1502917 -1.1923356 0.52587199 62
-3.2104266 -1.1926059 0.53411013 60
-3.2567346 -1.187104 0.54018033 88
-3.2872531 -1.1754198 0.54379356 100
-3.2187605 -1.1287307 0.53208673 103
-3.2050369 -1.101889 0.52890706 138
-3.1986082 -1.0777836 0.52688366 115
-3.1985831 -1.0559679 0.52587199 129
-3.1974692 -1.0338891 0.52471572 87
-3.2028093 -1.013952 0.52457118 122
-3.1919558 -0.98901534 0.52196968 113
-3.1884937 -0.96654409 0.52052438 115
-3.1877227 -0.94499528 0.51951271 116
-3.187758 -0.92376757 0.51864552 100
-3.1847966 -0.90176731 0.51734477 89
-3.1874084 -0.88141859 0.51691115 84
-3.186069 -0.86004168 0.51589948 80
-3.1836305 -0.83846283 0.51474321 75
-3.1820059 -0.81719208 0.51373154 93
-3.1821601 -0.79645276 0.51300889 87
-3.184103 -0.77621037 0.51257533 86
-3.1859171 -0.75597417 0.5121417 94
-3.1827819 -0.73463392 0.51098549 84
-3.1766083 -0.71271193 0.50939566 77
-3.1702859 -0.69089341 0.50780582 96
-3.1686566 -0.67020142 0.5069387 84
-3.1707704 -0.65034938 0.50664961 84
-3.1717894 -0.6303041 0.50621605 101
-3.1678231 -0.6093381 0.50505978 82
-3.1666379 -0.58898628 0.50433713 100
-3.1672702 -0.56902122 0.50390357 95
-3.1794772 -0.55109423 0.50520432 86
-3.1505895 -0.52620751 0.50043488 42
-1.2368439 -0.1995042 0.21686918 32
-1.232177 -0.19100736 0.21600199 34
