# .PCD v0.7 - Point Cloud Data file format
VERSION 0.7
FIELDS x y z intensity
SIZE 4 4 4 4
TYPE F F F F
COUNT 1 1 1 1
WIDTH 1302
HEIGHT 1
VIEWPOINT 0 0 0 1 0 0 0
POINTS 1302
DATA ascii
2.9914212 -0.054225724 -0.1541902 121
2.9930277 -0.072627872 -0.15431786 150
2.9885356 -0.090870582 -0.15406252 162
2.9799433 -0.10891563 -0.15355183 152
2.9722395 -0.12690111 -0.15310499 138
2.9684145 -0.14499037 -0.15291348 127
2.9624867 -0.16292815 -0.1525943 155
2.9564507 -0.18079865 -0.15227513 143
2.9503071 -0.19860122 -0.15195595 149
2.9450519 -0.21640821 -0.1517006 132
2.9406841 -0.23423731 -0.15150909 142
2.9362085 -0.25202098 -0.15131758 137
2.9296381 -0.26957592 -0.15099841 130
2.9249492 -0.28725454 -0.1508069 129
2.9241242 -0.30529979 -0.15087074 137
7.4751329 -0.82623696 -0.44387621 107
7.4887562 -0.8742857 -0.4450891 290
7.480279 -0.91985416 -0.44489759 249
7.5150738 -0.97097582 -0.44751486 253
7.5198526 -1.0185421 -0.44821703 264
7.5243306 -1.0662034 -0.44891924 217
7.5373912 -1.1152722 -0.45019594 269
7.530406 -1.1614997 -0.45019594 151
5.4194078 -0.87008518 -0.31390691 34
5.3716397 -0.89626241 -0.31116197 31
5.2205048 -0.90401489 -0.3017143 144
5.207984 -0.93479663 -0.30126745 153
5.1982255 -0.96600556 -0.3010121 168
5.1863198 -0.99675345 -0.30062911 92
4.7405958 -0.94132262 -0.2719669 20
4.7308202 -0.9695915 -0.27171156 14
4.7101355 -0.99550676 -0.27075404 9
4.1734715 -0.9089132 -0.23602745 36
4.1395755 -0.92817473 -0.23417622 54
4.1347747 -0.95378143 -0.23424006 52
4.1298156 -0.97936416 -0.23430389 53
4.1334248 -1.0070472 -0.23494224 47
4.132977 -1.0338429 -0.23532526 47
4.1294556 -1.059927 -0.23551677 57
2.3229449 -0.61163598 -0.11646334 33
2.3056588 -0.62223971 -0.11556964 49
2.2421582 -0.61989748 -0.11161184 17
2.2133453 -0.62658012 -0.10995211 26
2.1596127 -0.62571633 -0.10663266 21
2.1270266 -0.63045275 -0.10471759 24
2.0868239 -0.6324988 -0.10229184 31
2.0676508 -0.64056897 -0.10127047 28
1.9913684 -0.63036811 -0.096418962 39
1.9276369 -0.62324488 -0.092397317 64
1.9076653 -0.6297459 -0.09131211 54
1.8583676 -0.62615323 -0.088248 48
1.7893674 -0.61517054 -0.083843343 31
1.757305 -0.6162371 -0.081928276 32
1.7215388 -0.61559045 -0.079757862 42
1.6942871 -0.61760271 -0.07816197 39
1.6633341 -0.61791474 -0.076310739 36
1.6249747 -0.61504614 -0.073948823 41
1.600683 -0.61711216 -0.072544441 42
1.5671377 -0.61525869 -0.0705017 39
1.5373836 -0.61449802 -0.068714298 52
1.5123212 -0.61527497 -0.067246079 52
1.4799308 -0.61271566 -0.065267175 62
1.4678651 -0.61830026 -0.064692661 61
1.4539523 -0.6229744 -0.063990466 60
1.4363778 -0.62590748 -0.063032933 61
1.3960097 -0.61854768 -0.060479507 134
1.3940082 -0.62792104 -0.060607176 133
1.3910365 -0.63687789 -0.060671013 169
1.3861977 -0.64498043 -0.060607176 176
1.3831164 -0.65390015 -0.060671013 209
1.3808774 -0.66323811 -0.060798686 196
1.3803699 -0.67344797 -0.061054029 186
1.3762118 -0.68190509 -0.061054029 171
1.3791345 -0.69392312 -0.061564714 195
1.3810724 -0.70554876 -0.062011562 229
1.3820333 -0.71676499 -0.062394574 222
1.3837917 -0.72848409 -0.062841423 234
1.3845776 -0.73978162 -0.063224435 226
1.3879092 -0.75254244 -0.063798957 255
1.3832655 -0.76104432 -0.063798957 240
1.3803128 -0.77048993 -0.06392663 237
1.3807702 -0.78189409 -0.064309642 254
1.3750812 -0.78985476 -0.064245805 295
1.3762457 -0.80179232 -0.064692661 352
1.3687222 -0.80869937 -0.064501151 238
1.3688715 -0.82015866 -0.064884163 207
1.3612542 -0.82698864 -0.064692661 176
1.3561543 -0.8353256 -0.064692661 212
1.3484635 -0.84204596 -0.064501151 200
1.3407414 -0.84870344 -0.064309642 203
1.327948 -0.85206562 -0.06373512 225
1.3134906 -0.85421515 -0.063032933 288
1.2998908 -0.85676861 -0.062394574 205
1.2721992 -0.84976798 -0.060671013 157
1.2446432 -0.84246027 -0.058947451 150
1.2196951 -0.83653975 -0.057415396 124
1.205523 -0.83774585 -0.056713205 114
1.1873015 -0.83593827 -0.055691835 113
1.1723984 -0.83625621 -0.054925807 115
1.1575367 -0.83642292 -0.054159779 120
1.1419119 -0.83584982 -0.053329919 118
1.1255363 -0.8345226 -0.052436218 130
1.1084223 -0.83242714 -0.051478684 134
1.0905824 -0.82954949 -0.050457314 147
1.0767735 -0.82952863 -0.049755123 140
1.0622195 -0.82875621 -0.048989095 165
1.0492822 -0.82907355 -0.04835074 165
1.035602 -0.82864034 -0.047648549 143
1.0227424 -0.82869875 -0.047010191 157
1.0060629 -0.82546687 -0.046052657 159
0.99022979 -0.82269943 -0.04515896 155
0.97828829 -0.82298005 -0.044584438 154
0.96638089 -0.82314533 -0.044009916 152
0.95450854 -0.8231957 -0.043435398 177
0.94492805 -0.8251 -0.043052383 149
0.93909967 -0.83022171 -0.042988546 113
0.92580587 -0.82864964 -0.042286355 161
0.91552591 -0.82962549 -0.041839506 169
0.90453345 -0.82983214 -0.041328821 166
0.89211023 -0.82857758 -0.040690467 165
0.88046402 -0.82788539 -0.040115945 154
0.86741406 -0.82570606 -0.039413754 175
0.8558619 -0.82478255 -0.038839232 164
0.84649765 -0.82583851 -0.03845622 172
0.83502203 -0.82470775 -0.037881698 192
0.82500428 -0.82487822 -0.03743485 156
0.81712097 -0.82708609 -0.037179507 181
0.80714995 -0.82708639 -0.036732659 183
0.79651701 -0.82627743 -0.036221974 206
0.78661299 -0.82609183 -0.035775125 173
0.77537352 -0.82436258 -0.035200603 201
0.76418507 -0.82252675 -0.034626082 209
0.75439864 -0.82205498 -0.034179233 209
0.73995346 -0.81632012 -0.033285536 200
0.73093498 -0.81638545 -0.03290252 226
0.71995962 -0.81412899 -0.032327998 218
0.70969647 -0.81252027 -0.031817317 213
0.70208895 -0.81383801 -0.031561974 248
0.6944921 -0.8150931 -0.031306632 260
0.68497783 -0.81399566 -0.030859781 246
0.67741781 -0.8151142 -0.030604439 233
0.66986996 -0.81617075 -0.030349096 249
0.65982002 -0.81406528 -0.029838411 283
0.65231693 -0.81498301 -0.029583069 251
0.64420843 -0.81505668 -0.029263891 260
0.63550937 -0.81427526 -0.028880877 255
0.62684435 -0.81341791 -0.028497864 258
0.61881846 -0.81327903 -0.028178684 275
0.61141777 -0.81387007 -0.027923342 229
0.60284352 -0.81279838 -0.02754033 258
0.59489548 -0.81245726 -0.027221151 259
0.5875594 -0.81285793 -0.026965808 263
0.58082086 -0.81401145 -0.026774302 277
0.5740903 -0.81511295 -0.026582794 269
0.56622827 -0.81452417 -0.026263617 253
0.55896014 -0.81469244 -0.026008274 252
0.55227119 -0.81562847 -0.025816767 283
0.54670137 -0.81817222 -0.025752932 286
0.53892249 -0.81734669 -0.025433753 237
0.53661996 -0.82481951 -0.025752932 172
0.53047007 -0.82641739 -0.025625261 124
0.51470417 -0.81279856 -0.024348548 255
0.50706184 -0.81171054 -0.02402937 239
0.49945238 -0.81055957 -0.023710191 263
0.49343219 -0.81190366 -0.02358252 237
0.48638752 -0.81149298 -0.023327177 267
0.47936654 -0.81102651 -0.023071837 266
0.47337541 -0.81222856 -0.022944165 256
0.46738762 -0.81338769 -0.022816494 284
0.46041894 -0.8127678 -0.022561152 292
0.45493633 -0.81470644 -0.022497315 316
0.44800255 -0.81398624 -0.022241972 303
0.44157103 -0.81408876 -0.022050466 348
0.43421355 -0.81238317 -0.021731287 316
0.42782453 -0.81238377 -0.021539781 292
0.42007196 -0.80967975 -0.021156767 338
0.41282335 -0.80779982 -0.02083759 366
0.407859 -0.81031764 -0.02083759 366
0.40110496 -0.80922914 -0.020582248 351
0.39437971 -0.80808836 -0.020326905 381
0.38854879 -0.80869436 -0.020199234 348
0.38229823 -0.80835736 -0.020007726 372
0.37648803 -0.80887872 -0.019880055 376
0.3711018 -0.81026644 -0.01981622 377
0.36407119 -0.80797982 -0.019497041 460
0.3578923 -0.80746198 -0.019305535 415
0.35213268 -0.80781353 -0.019177863 435
0.34598869 -0.8072077 -0.018986356 420
0.33947751 -0.80563754 -0.018731015 407
0.3352924 -0.80954909 -0.018858684 417
0.32918891 -0.80881864 -0.018667178 420
0.32347801 -0.80897039 -0.018539507 466
0.31741241 -0.80815381 -0.018348001 470
0.31136906 -0.80729336 -0.018156493 455
0.30534825 -0.80638933 -0.017964987 437
0.29935032 -0.80544186 -0.017773479 452
0.29371789 -0.80538869 -0.017645808 463
0.28776079 -0.80435729 -0.017454302 461
0.28182748 -0.80328321 -0.017262794 458
0.27591822 -0.80216676 -0.017071288 448
0.27035251 -0.80195361 -0.016943617 493
0.26448643 -0.80075496 -0.016752109 449
0.25956813 -0.80236274 -0.016752109 497
0.25433823 -0.80298907 -0.016688274 490
0.24911046 -0.80358148 -0.01662444 473
0.24330482 -0.80223024 -0.016432932 486
0.23752518 -0.80083817 -0.016241426 497
0.23177181 -0.79940546 -0.016049918 514
0.226045 -0.79793239 -0.015858412 461
0.22061159 -0.79738092 -0.015730741 476
0.21545413 -0.79775625 -0.015666904 534
0.21055514 -0.79906327 -0.015666904 487
0.20515057 -0.79840726 -0.015539234 506
0.20024778 -0.79965103 -0.015539234 539
0.1951005 -0.79989523 -0.015475398 532
0.18949579 -0.79816473 -0.015283891 505
0.1848198 -0.80028468 -0.015347727 521
0.17968681 -0.80043 -0.015283891 557
0.17413285 -0.79859263 -0.015092384 540
0.16860822 -0.79671735 -0.014900877 561
0.16311318 -0.79480445 -0.01470937 567
0.15784308 -0.79383296 -0.014581699 520
0.15278016 -0.79380661 -0.014517863 579
0.1477235 -0.79374808 -0.014454028 574
0.14302742 -0.79562169 -0.014517863 556
0.13848493 -0.79845071 -0.014645535 517
0.13308817 -0.79633272 -0.014454028 599
0.12819946 -0.79713434 -0.014454028 597
0.12315302 -0.79691976 -0.014390192 604
0.1182609 -0.79766041 -0.014390192 529
0.11111183 -0.78256333 -0.013368823 305
0.10832875 -0.7980628 -0.014326356 538
0.10355854 -0.79970211 -0.014390192 661
0.098159425 -0.79636085 -0.014134849 597
0.093387693 -0.7979393 -0.014198685 531
0.088931508 -0.8024646 -0.014454028 699
0.083588719 -0.79902518 -0.014198685 654
0.079175562 -0.8044886 -0.014517863 739
0.074237823 -0.8049593 -0.014517863 748
0.069383323 -0.80639392 -0.014581699 769
0.064274214 -0.80481493 -0.014454028 818
0.059408575 -0.80618942 -0.014517863 781
0.054460775 -0.80653876 -0.014517863 858
0.049510919 -0.80685771 -0.014517863 910
0.04472569 -0.8101356 -0.01470937 867
0.039655186 -0.80840129 -0.014581699 933
0.034737445 -0.8096264 -0.014645535 954
0.029694729 -0.8078298 -0.014517863 963
0.024830496 -0.8109892 -0.01470937 1049
0.019878797 -0.81212395 -0.014773206 1073
0.014895324 -0.81223065 -0.014773206 997
0.0099366102 -0.8143025 -0.014900877 1112
0.0049399571 -0.81434816 -0.014900877 1085
-5.6882207e-05 -0.81436312 -0.014900877 1071
-0.005059429 -0.81534541 -0.014964713 1073
-0.010050366 -0.81430107 -0.014900877 1073
-0.015010723 -0.8122285 -0.014773206 1084
-0.019970104 -0.81112343 -0.01470937 1044
-0.02488629 -0.80899066 -0.014581699 1078
-0.029849695 -0.80882269 -0.014581699 1015
-0.034769539 -0.80762726 -0.014517863 1074
-0.039627284 -0.80540514 -0.014390192 960
-0.044787087 -0.8091327 -0.014645535 1070
-0.049750991 -0.80884266 -0.014645535 979
-0.054779913 -0.80951786 -0.01470937 1028
-0.05974599 -0.80916649 -0.01470937 1005
-0.06463071 -0.80778986 -0.014645535 1007
-0.069415577 -0.80538946 -0.014517863 926
-0.073990807 -0.8009733 -0.014262521 882
-0.079001501 -0.8014974 -0.014326356 943
-0.083814412 -0.80000502 -0.014262521 873
-0.088940747 -0.80145949 -0.014390192 902
-0.093741067 -0.79990745 -0.014326356 844
-0.099012688 -0.80228871 -0.014517863 783
-0.1040614 -0.80265582 -0.014581699 817
-0.10898445 -0.80200219 -0.014581699 783
-0.11390339 -0.80131841 -0.014581699 708
-0.11881804 -0.8006044 -0.014581699 744
-0.12327199 -0.7969014 -0.014390192 687
-0.12815937 -0.79613 -0.014390192 704
-0.13287775 -0.79434425 -0.014326356 652
-0.13774925 -0.79351401 -0.014326356 633
-0.14261557 -0.79265386 -0.014326356 632
-0.14729425 -0.79078269 -0.014262521 608
-0.15233192 -0.79084402 -0.014326356 602
-0.15718158 -0.78989446 -0.014326356 617
-0.16182503 -0.78793752 -0.014262521 542
-0.16706924 -0.78888255 -0.014390192 616
-0.17233112 -0.78979284 -0.014517863 566
-0.17782871 -0.79164195 -0.01470937 536
-0.18335547 -0.79345328 -0.014900877 546
-0.18868092 -0.79425538 -0.015028548 541
-0.19425924 -0.79599154 -0.015220055 530
-0.19938177 -0.79575276 -0.015283891 550
-0.20450869 -0.79548109 -0.015347727 555
-0.21040159 -0.79807168 -0.015603068 499
-0.21555437 -0.79772919 -0.015666904 562
-0.2212424 -0.79927731 -0.015858412 497
-0.22614251 -0.79790473 -0.015858412 523
-0.23186678 -0.79937792 -0.016049918 568
-0.23620044 -0.79602641 -0.015922247 502
-0.24079102 -0.79360706 -0.015858412 483
-0.24565597 -0.79211462 -0.015858412 489
-0.25051168 -0.79059237 -0.015858412 495
-0.25597158 -0.79093963 -0.015986083 484
-0.26113254 -0.79030186 -0.016049918 494
-0.26629528 -0.78963047 -0.016113754 516
-0.27178386 -0.78986931 -0.016241426 445
-0.27728537 -0.79007041 -0.016369097 470
-0.28246376 -0.78929389 -0.016432932 447
-0.28764302 -0.78848356 -0.016496768 326
-0.28969708 -0.77921921 -0.015986083 149
-0.29588506 -0.78116071 -0.016241426 106
-0.29959625 -0.77653676 -0.016049918 128
-0.34153256 -0.86944383 -0.022561152 30
-0.62782431 -1.5707471 -0.071012385 28
-0.6374504 -1.5668653 -0.071012385 39
-0.64590794 -1.560158 -0.070820875 37
-0.65469444 -1.5543259 -0.070693202 25
-0.66421926 -1.5502795 -0.070693202 31
-0.67571121 -1.5507497 -0.071012385 26
-0.68521374 -1.5465744 -0.071012385 34
-0.69264227 -1.5377908 -0.070693202 51
-0.69625211 -1.520807 -0.069799505 18
-0.66896397 -1.4377781 -0.064245805 7
-0 -0 -0 9
-0 -0 -0 7
-0 -0 -0 4
-0 -0 -0 5
-0 -0 -0 4
-0 -0 -0 6
-0 -0 -0 4
-0 -0 -0 4
-0 -0 -0 5
-0 -0 -0 5
-0 -0 -0 5
-0 -0 -0 5
-1.6435512 -2.9032791 -0.17621347 10
-1.6742527 -2.9156425 -0.17787321 4
-1.6393851 -2.8147604 -0.17117046 5
-1.6500286 -2.7934773 -0.1703406 4
-1.6491935 -2.7533336 -0.16810636 9
-1.6676104 -2.7457216 -0.16829786 4
-1.6608839 -2.6971951 -0.16542526 8
-1.6890265 -2.7055788 -0.16682965 6
-1.6714482 -2.6411896 -0.16274416 9
-1.6736161 -2.6090424 -0.16108444 6
-0 -0 -0 7
-1.6835474 -2.5549726 -0.15853101 8
-0 -0 -0 5
-1.6929662 -2.5018835 -0.15604143 8
-1.6828949 -2.4544072 -0.15316883 5
-1.6888148 -2.4309204 -0.15214746 5
-0 -0 -0 5
-0 -0 -0 4
-1.7069819 -2.3630159 -0.14927486 8
-1.7261628 -2.3589411 -0.14978553 10
-1.7019845 -2.2961872 -0.14563622 5
-0 -0 -0 6
-1.7227868 -2.2655947 -0.14487019 6
-1.7031713 -2.2114904 -0.14135922 7
-0 -0 -0 5
-1.7134827 -2.1692767 -0.13963567 7
-0 -0 -0 6
-1.6985239 -2.096899 -0.13542251 6
-1.7126238 -2.087981 -0.13555019 8
-1.7075531 -2.0559349 -0.13376279 10
-1.7047231 -2.0270858 -0.13223074 9
-1.7203634 -2.0203872 -0.13254991 9
-1.7236065 -1.9992102 -0.13165621 8
-0 -0 -0 6
-0 -0 -0 4
-1.7328348 -1.9366491 -0.12903896 8
-1.7406659 -1.9215419 -0.12865594 11
-1.7315168 -1.8880218 -0.12667704 5
-1.7369587 -1.8707789 -0.12610252 7
-1.7347373 -1.8455406 -0.12482581 6
-1.7377746 -1.8261851 -0.12405978 5
-1.7344097 -1.8003927 -0.12271924 9
-1.7307943 -1.7747109 -0.12137868 12
-1.7269295 -1.7491418 -0.12003814 10
-1.7164685 -1.717334 -0.11812307 7
-1.7312317 -1.7109793 -0.11850608 9
-1.7245618 -1.6835905 -0.11697403 11
-1.4612076 -1.4089998 -0.092652656 27
-1.3954097 -1.3290988 -0.086077586 46
-1.4086255 -1.3252996 -0.086524442 38
-1.4174618 -1.317311 -0.086588271 60
-1.4211078 -1.3045387 -0.086205259 55
-1.6123977 -1.4620774 -0.10203649 6
-1.6354604 -1.4648093 -0.10324937 5
-1.5502534 -1.3714136 -0.095206082 17
-1.5691583 -1.3710705 -0.096099779 15
-1.57452 -1.3588078 -0.09584444 9
-1.5706778 -1.3387611 -0.09482307 7
-0 -0 -0 4
-1.5747118 -1.3091755 -0.0938017 6
-0 -0 -0 4
-1.6007344 -1.2979255 -0.09463156 5
-0 -0 -0 6
-1.6556764 -1.3091402 -0.097823344 5
-0 -0 -0 8
-0 -0 -0 6
-1.7072816 -1.2996039 -0.10005759 6
-0 -0 -0 5
-1.7383263 -1.2898567 -0.10127047 26
-1.7494278 -1.2815257 -0.10152581 29
-1.7532153 -1.2678427 -0.10120663 9
-1.7739558 -1.2663407 -0.102228 21
-1.7767985 -1.2519822 -0.10184499 26
-1.7811702 -1.2387766 -0.10158964 27
-1.7796884 -1.2216102 -0.10088746 17
-1.7863244 -1.2101073 -0.10082362 12
-1.78625 -1.1941308 -0.1002491 19
-1.7893788 -1.1803998 -0.099929914 26
-1.7907338 -1.1655861 -0.099483065 26
-1.7986916 -1.1551158 -0.099546902 34
-1.8023738 -1.1419206 -0.099291563 25
-1.8076541 -1.1297817 -0.09916389 14
-1.809456 -1.1155257 -0.098780878 26
-1.811151 -1.1012902 -0.098397866 19
-1.815307 -1.0886163 -0.098206356 21
-1.8133634 -1.0723758 -0.097567998 23
-1.8112893 -1.0562003 -0.096929647 22
-1.8116804 -1.0415835 -0.096482791 19
-1.8119606 -1.0270019 -0.096035942 25
-1.818228 -1.0158646 -0.096035942 27
-1.8156862 -0.9998734 -0.095397592 23
-1.8112628 -0.98299944 -0.09463156 29
-1.8190202 -0.97280884 -0.094759233 22
-1.8187754 -0.95837146 -0.094312385 30
-1.821079 -0.94535381 -0.094057038 26
-1.8215147 -0.93143493 -0.093674026 21
-1.8182834 -0.91575015 -0.093035668 34
-1.8256561 -0.90546328 -0.093163341 31
-1.8231076 -0.89030141 -0.09258882 23
-1.8132474 -0.87174433 -0.091503613 30
-1.8212681 -0.86188322 -0.091695122 21
-1.8219993 -0.84858435 -0.091375947 22
-1.8208219 -0.83447707 -0.090929098 31
-1.8277272 -0.82410979 -0.091056764 18
-1.8245399 -0.80923641 -0.09048225 28
-1.8230684 -0.7952317 -0.090035394 20
-1.8288306 -0.78442419 -0.09009923 19
-1.8253341 -0.76969647 -0.089524709 21
-1.8337098 -0.76001114 -0.089780055 20
-1.8346419 -0.74723887 -0.089524709 32
-1.8354865 -0.7344839 -0.08926937 17
-1.845531 -0.72539926 -0.089652382 30
-1.8490163 -0.71370208 -0.089588545 22
-1.8505613 -0.70128179 -0.089397043 20
-1.8155476 -0.67529374 -0.086715944 7
-1.8374676 -0.67064571 -0.087928824 18
-1.8312136 -0.6556561 -0.087226629 17
-1.831436 -0.64308435 -0.08697129 20
-1.8296862 -0.62988454 -0.086588271 25
-1.8344622 -0.61896515 -0.086652108 32
-1.8334882 -0.6061303 -0.086332932 19
-1.8371729 -0.59486878 -0.086332932 22
-1.843642 -0.5844903 -0.086524442 25
-1.8462406 -0.57287097 -0.086460605 21
-1.8468564 -0.56066161 -0.086269096 34
-1.8454785 -0.54789782 -0.08594992 19
-1.8373054 -0.53322369 -0.085183889 23
-1.8434228 -0.52275753 -0.085375398 17
-1.838902 -0.50930411 -0.084864713 29
-1.8362125 -0.49644727 -0.084481701 13
-1.8411539 -0.48568064 -0.084609367 20
-1.8402336 -0.47337911 -0.084354028 25
-1.8401996 -0.46135008 -0.084162518 24
-1.8449346 -0.45052403 -0.084290192 21
-1.8447517 -0.43850225 -0.084098682 18
-1.841574 -0.42582467 -0.08371567 19
-1.8431785 -0.41429791 -0.083651833 22
-1.842761 -0.40234134 -0.083460331 22
-1.8383615 -0.38957712 -0.083013482 27
-1.8426722 -0.37869203 -0.083141148 41
-1.8410463 -0.36659807 -0.082885809 22
-1.8344421 -0.35359293 -0.082311288 23
-1.8424634 -0.34342879 -0.0826943 20
-1.8484644 -0.33282536 -0.082949646 29
-1.846539 -0.32079306 -0.0826943 23
-1.8258353 -0.30566221 -0.081226081 15
-1.7981198 -0.28968507 -0.079311013 12
-1.2752165 -0.19730678 -0.045350466 5
-1.2764031 -0.18947849 -0.045350466 8
-1.260746 -0.17924978 -0.044265259 9
-1.2371014 -0.16814271 -0.042669371 10
-1.2420684 -0.16106342 -0.042924713 12
-1.2430333 -0.15343919 -0.042924713 8
-1.219173 -0.14289689 -0.041328821 21
-1.2180431 -0.13519268 -0.041201152 19
-1.2138872 -0.12719476 -0.040881973 15
-1.2086861 -0.11915472 -0.040498961 11
-1.2034323 -0.11118332 -0.040115945 24
-1.1891782 -0.10250659 -0.039158411 21
-1.1838163 -0.094728403 -0.038775396 39
-1.1903466 -0.087905824 -0.039158411 71
-1.1888722 -0.0804649 -0.039030738 70
-1.1813751 -0.072675735 -0.038520057 44
-1.1827953 -0.065481082 -0.03858389 43
-1.1871617 -0.058419876 -0.038839232 45
-1.1904889 -0.051264282 -0.039030738 49
-1.201751 -0.044367217 -0.039732933 94
-1.2010031 -0.036961548 -0.039669096 165
-1.1853552 0.086707264 -0.053647097 166
-1.1867886 0.094138473 -0.053799838 183
-1.1861886 0.1014187 -0.053799838 166
-1.1885225 0.10897113 -0.054028951 124
-1.193785 0.11685031 -0.054487176 56
-1.1722214 0.12198514 -0.052883387 32
-1.1773967 0.12983708 -0.053341612 44
-1.173607 0.13670996 -0.053112499 36
-1.1668088 0.14317398 -0.052654274 36
-1.1738186 0.1513586 -0.05326524 49
-1.1718798 0.15842362 -0.053188872 48
-1.1748341 0.16617361 -0.053494353 17
-1.1797098 0.17425914 -0.053952578 21
-1.1677798 0.17981453 -0.053112499 15
-1.1774825 0.18872286 -0.053952578 11
-1.1802359 0.1966034 -0.054258063 8
-1.1976717 0.2070872 -0.055709112 7
-0 0 -0 6
-1.2420882 0.23054658 -0.059374921 10
-1.271 0.24401882 -0.061742421 10
-0 0 -0 8
-1.7493906 0.35863119 -0.099393316 17
-1.7910494 0.37866756 -0.10283001 27
-1.8003814 0.39220428 -0.10374647 20
-1.7950227 0.40258738 -0.10351735 28
-1.7973757 0.41471779 -0.1038992 24
-1.7889771 0.42435402 -0.10344098 19
-1.7911825 0.43650645 -0.10382283 20
-1.8078127 0.45234129 -0.10535026 15
-1.7943815 0.46069115 -0.10451017 23
-1.8021256 0.47449186 -0.10535026 17
-1.7905179 0.48319706 -0.10466292 24
-1.7904019 0.49497327 -0.10489203 20
-1.7921273 0.50731057 -0.10527388 27
-1.7870656 0.51774114 -0.10512114 30
-1.7886342 0.53011632 -0.10550299 20
-1.7824857 0.5402118 -0.10527388 27
-1.7915167 0.55498207 -0.10626671 18
-1.7975817 0.56897891 -0.10703041 35
-1.7940567 0.57999796 -0.10703041 32
-1.7980372 0.59350008 -0.10764138 26
-1.8000299 0.606435 -0.10809961 29
-1.8057022 0.62071544 -0.10886332 16
-1.8018596 0.63178337 -0.10886332 38
-1.7998265 0.64349997 -0.10901606 24
-1.7977173 0.65521538 -0.10916881 26
-1.7983356 0.66797239 -0.10955065 32
-1.7979324 0.68040812 -0.10985614 26
-1.7974441 0.69286394 -0.11016162 24
-1.7987264 0.70606917 -0.11061985 31
-1.7980629 0.71857494 -0.11092534 28
-1.7982367 0.73147535 -0.11130719 36
-1.7909515 0.74134964 -0.11107808 35
-1.7909623 0.75426251 -0.11145993 38
-1.7826355 0.76366472 -0.11115445 17
-1.791624 0.78057033 -0.11230002 23
-1.7940918 0.79478401 -0.11291098 24
-1.7955437 0.80864727 -0.11344558 23
-1.800518 0.8242203 -0.11428566 34
-1.8053685 0.8398847 -0.11512574 24
-1.8082918 0.85478622 -0.11581308 29
-1.8066071 0.86759424 -0.11611857 27
-1.8039373 0.87997603 -0.11634768 30
-1.7967175 0.8901419 -0.11619493 25
-1.7947837 0.90294415 -0.11650041 28
-1.793648 0.91621011 -0.11688227 28
-1.7862227 0.92627943 -0.11672953 32
-1.7813876 0.93768704 -0.1168059 38
-1.7843922 0.95330322 -0.11756961 41
-1.7837669 0.96708846 -0.11802784 28
-1.782166 0.98042077 -0.11840969 24
-1.7700242 0.98793232 -0.1178751 34
-1.7613269 0.99729908 -0.11764598 30
-1.7491242 1.0046079 -0.11711138 34
-1.7420658 1.014819 -0.11703502 25
-1.625103 0.96000063 -0.10718316 73
-1.5901108 0.95251477 -0.10458654 100
-1.5825325 0.96121722 -0.1044338 100
-1.7056035 1.050462 -0.11604219 42
-1.7430891 1.0883932 -0.12001348 24
-1.749853 1.1076081 -0.12123542 17
-1.750574 1.1231743 -0.12192276 39
-1.7578541 1.1431432 -0.12322106 28
-1.7508068 1.1539077 -0.12322106 35
-1.7586128 1.1746053 -0.12459574 23
-1.7472452 1.1825771 -0.12421389 31
-1.7333804 1.1887608 -0.12360292 28
-1.7219613 1.1965271 -0.12322106 30
-1.7072523 1.2019005 -0.12253372 35
-1.6795592 1.1978679 -0.12062445 14
-1.6802564 1.2139947 -0.12138816 18
-1.6607118 1.2154418 -0.1202426 59
-1.6476182 1.221449 -0.119708 21
-1.6305287 1.2243458 -0.11879155 18
-1.6071198 1.2222466 -0.11726413 22
-1.5980109 1.230867 -0.11711138 9
-1.5762836 1.229602 -0.11573671 15
-1.5601069 1.2324468 -0.11489663 10
-1.5353943 1.2282832 -0.11321647 17
-1.5247313 1.2351687 -0.11291098 7
-1.5017134 1.2318444 -0.11138356 25
-1.4588621 1.2117087 -0.1078705 105
-1.4452982 1.2154994 -0.10725953 167
-1.4279492 1.215935 -0.10626671 184
-1.4136686 1.21881 -0.10557937 156
-1.3971547 1.2195871 -0.10466292 162
-1.3806847 1.2202078 -0.10374647 178
-1.3672305 1.223334 -0.1031355 158
-1.3456663 1.2189726 -0.10168444 196
-1.330083 1.2197882 -0.10084437 182
-1.3152708 1.2211376 -0.10008065 207
-1.2990403 1.2209847 -0.099164203 197
-1.2871928 1.2248057 -0.098705977 194
-1.2746298 1.2278353 -0.098171383 195
-1.2520909 1.2210045 -0.096567594 167
-0.93753749 0.92514622 -0.063498951 180
-0.9290241 0.92806023 -0.06319347 234
-0.92121083 0.93161428 -0.062964357 198
-0.93844759 0.96080786 -0.065484598 99
-1.1683968 1.2114393 -0.091527104 118
-1.1485709 1.2055826 -0.090152428 182
-1.1384207 1.2097011 -0.089846946 192
-1.1262283 1.2115482 -0.089312345 191
-1.1147301 1.2140263 -0.088854119 221
-1.1012361 1.2141919 -0.088166781 207
-1.0877823 1.214238 -0.087479442 199
-1.0756899 1.2156593 -0.086944848 212
-1.0609988 1.2139732 -0.086104766 240
-1.0483222 1.2144186 -0.085493796 230
-1.0343876 1.213236 -0.084730089 240
-1.0192238 1.2104019 -0.083813637 287
-1.006045 1.2097292 -0.083126299 264
-0.99291295 1.2089405 -0.082438961 247
-0.97794622 1.2057118 -0.081522509 212
-0.97052968 1.2116897 -0.081522509 279
-0.95566118 1.208232 -0.080606051 243
-0.94271129 1.2069967 -0.079918712 231
-0.93285435 1.2095983 -0.079613231 240
-0.92058724 1.2089494 -0.079002261 232
-0.91075766 1.2113856 -0.07869678 258
-0.89737099 1.2089403 -0.077933073 242
-0.88699245 1.2104002 -0.077551216 234
-0.87487859 1.2093534 -0.076940246 253
-0.86396879 1.2098275 -0.07648202 237
-0.85308623 1.2102135 -0.076023795 241
-0.84166276 1.2096928 -0.075489201 246
-0.82971418 1.2082553 -0.074878231 219
-0.82060868 1.2108461 -0.074649118 229
-0.80984181 1.2108829 -0.074190892 233
-0.79910547 1.2108334 -0.073732667 188
-0.78405297 1.2040101 -0.072663471 62
-0.76642317 1.1928518 -0.071212426 34
-0.75962263 1.1983745 -0.071288794 17
-0.75014353 1.1996295 -0.070983313 23
-0.74015486 1.1999645 -0.070601456 16
-0.730708 1.2010744 -0.070295975 16
-0.71871406 1.1978366 -0.069608629 18
-0 0 -0 14
-0.70897812 1.2151825 -0.070372343 22
-0.70101207 1.2186451 -0.070295975 25
-0 0 -0 11
-0.69280589 1.239346 -0.071365163 12
-0.6899929 1.2523105 -0.072128877 15
-0.69702339 1.2836959 -0.074496374 44
-0.68396705 1.2782739 -0.073656291 13
-0.68214655 1.2939177 -0.074649118 11
-0.67970079 1.3087014 -0.075565569 13
-0.66893739 1.3075193 -0.075107343 18
-0.6555264 1.3009098 -0.074190892 108
-0.6448769 1.2995465 -0.073732667 81
-0.63994986 1.3097523 -0.074267261 121
-0.63017535 1.3100588 -0.073961779 106
-0.61871737 1.3066888 -0.07335081 19
-0.61068803 1.3104606 -0.07335081 13
-1.5170249 3.3124764 -0.24167247 10
-1.501583 3.3326325 -0.24258892 10
-1.4823172 3.3445184 -0.24281803 12
-0 0 -0 6
-1.4478358 3.3780389 -0.24411634 10
-1.4266944 3.3859401 -0.24403997 10
-1.4100853 3.4047649 -0.24488005 29
-1.3872896 3.4087346 -0.24449819 37
-1.3926101 3.4829237 -0.24992053 18
-1.3956145 3.5535915 -0.2550374 11
-1.3981618 3.6253552 -0.2602306 7
-1.3882381 3.6665063 -0.2629036 5
-1.3785557 3.7095404 -0.26572934 6
-1.3649839 3.7432239 -0.26779133 8
-1.3517214 3.7787576 -0.27000609 6
-1.3463186 3.8377922 -0.27413014 9
-1.3308452 3.869555 -0.27603942 6
-1.3290341 3.9428487 -0.28130901 6
-0 0 -0 5
-1.2989452 4.0157871 -0.28589126 5
-1.3028536 4.1139922 -0.29314652 9
-1.2970517 4.1847711 -0.29818699 11
-1.2829132 4.2308211 -0.30124184 5
-1.273073 4.2931056 -0.30559498 12
-1.2558596 4.3324413 -0.30811521 15
-1.2447263 4.394752 -0.31246838 7
-1.230485 4.4484377 -0.31613418 5
-1.2143327 4.4972992 -0.31941813 5
-1.1986418 4.5499849 -0.32300755 11
-1.1882979 4.6258249 -0.32842991 11
-1.1683589 4.6668839 -0.33110288 19
-0 0 -0 4
-0.68016708 2.8637159 -0.18806003 11
-0.65742934 2.8454893 -0.1863035 19
-0.63843066 2.842659 -0.1857689 11
-0.61927938 2.8387287 -0.18515794 15
-0.59422231 2.8063803 -0.1823322 20
-0.56238014 2.7386684 -0.17675713 40
-0.54207057 2.7244637 -0.17538245 47
-0.52421445 2.7218635 -0.17492422 47
-0.50713927 2.723068 -0.17477149 49
-0.48883617 2.7172959 -0.17408414 53
-0.47113335 2.7143495 -0.17362592 54
-0.45397735 2.7142386 -0.1733968 57
-0.43684047 2.7140198 -0.17316769 54
-0.41972336 2.7136929 -0.17293857 46
-0.40291864 2.7152307 -0.1728622 47
-0.3855513 2.7127159 -0.17248034 54
-0.3693006 2.7179947 -0.17270947 51
-0.3529996 2.723176 -0.17293857 50
-0.33531037 2.7173736 -0.17232761 41
-0.31955546 2.7273028 -0.17293857 53
-0.3020483 2.722275 -0.17240398 52
-0.28533906 2.724077 -0.17240398 57
-0.26900852 2.7297459 -0.17270947 42
-0.25170642 2.7253876 -0.17225124 57
-0.23472348 2.7239006 -0.17202212 55
-0.21776827 2.7223077 -0.17179301 69
-0.20047656 2.7156374 -0.17118205 53
-0.1839437 2.718806 -0.17133479 45
-0.16671102 2.7109265 -0.17064744 66
-0.15007395 2.7118983 -0.17064744 46
-0.13328555 2.7097805 -0.17041834 49
-0.11648637 2.7065625 -0.17011285 60
-0.09994968 2.7092192 -0.17026559 50
-0.083112836 2.702805 -0.16973099 58
-0.06650307 2.7022674 -0.16965462 59
-0.049885053 2.7006307 -0.16950189 51
-0.033242159 2.6949039 -0.16904366 55
-0.016671425 2.6890748 -0.16858543 63
-0.00018235185 2.659214 -0.16629431 50
0.015835846 2.6133006 -0.16278124 34
0.031618349 2.593214 -0.16125381 31
0.023339678 1.3049717 -0.0625825 35
0.031271875 1.3018137 -0.062353387 50
0.039135247 1.2976109 -0.062047906 54
0.047207709 1.3003355 -0.062277019 38
0.1148203 2.6756961 -0.16774535 27
0.13207389 2.6918709 -0.16904366 35
0.071577862 1.3072106 -0.062887989 38
0.080151007 1.3157034 -0.063575327 33
0.088290118 1.3161817 -0.063651696 46
0.096216954 1.3136264 -0.063498951 39
0.21618071 2.7064304 -0.17057107 34
0.23243934 2.7010796 -0.17026559 44
0.24873245 2.696624 -0.17003648 37
0.12724879 1.2989626 -0.0625825 40
0.13521668 1.2981573 -0.0625825 41
0.14240761 1.2903665 -0.062047906 23
0.3156504 2.6966395 -0.17057107 23
0.15859893 1.2914903 -0.062277019 26
0.16652037 1.2904929 -0.062277019 28
0.17483921 1.2924107 -0.062506132 30
0.18234417 1.2883523 -0.062277019 29
0.19083259 1.2911541 -0.0625825 36
0.19920953 1.2929149 -0.062811613 34
0.20840903 1.299543 -0.063422583 27
0.21736772 1.30414 -0.063880809 26
0.2248532 1.2998347 -0.063651696 24
0.23123294 1.2895991 -0.062964357 31
0.236947 1.276394 -0.062047906 69
0.24137451 1.2572937 -0.060673226 65
0.24869481 1.2538333 -0.060520485 46
0.25136152 1.2278678 -0.05861121 39
0.25806338 1.2224008 -0.058305725 58
0.26385623 1.2130016 -0.057694759 49
0.27041879 1.2074687 -0.057389274 24
0.27602431 1.1980155 -0.056778308 39
0.28336999 1.1962992 -0.056778308 26
0.29070503 1.194538 -0.056778308 38
0.29875699 1.1956331 -0.057007421 27
0.30559051 1.1918463 -0.056854676 31
0.31315225 1.1909128 -0.056931049 31
0.31941211 1.185119 -0.056625564 30
0.32747671 1.1860194 -0.056854676 31
0.33420348 1.1820693 -0.056701936 25
0.34172827 1.1809539 -0.056778308 24
0.34981984 1.1817023 -0.057007421 139
0.36054152 1.190982 -0.057923872 331
0.36872938 1.1916041 -0.058152985 272
0.36156312 1.1436995 -0.054487176 55
0.36703742 1.1367167 -0.054105323 69
0.3765102 1.1420164 -0.054716289 39
0.38319147 1.1387399 -0.054639921 48
0.39049616 1.13731 -0.054716289 50
0.39945012 1.1405369 -0.055174515 59
0.40778583 1.1418191 -0.05548 80
0.41546825 1.1411686 -0.05563274 75
0.42385349 1.1423358 -0.055938225 63
0.43262213 1.1443752 -0.056320079 58
0.43891737 1.1398388 -0.056167338 53
0.44699767 1.139908 -0.056396451 75
0.4558365 1.141772 -0.056778308 95
0.4628337 1.1389536 -0.056778308 59
0.4705773 1.1379343 -0.056931049 55
0.47948843 1.1396189 -0.057312902 73
0.48725832 1.1384879 -0.057465646 70
0.49582997 1.1391321 -0.057771128 65
0.50402343 1.1388025 -0.05800024 94
0.51264143 1.1393241 -0.058305725 71
0.52003807 1.1370635 -0.058382098 77
0.52868956 1.1374663 -0.058687583 77
0.54931146 1.1630391 -0.061131451 29
0.54390472 1.1335886 -0.058916695 71
0.55303836 1.1347092 -0.059298549 74
0.56220621 1.1357604 -0.059680402 78
0.59832537 1.1901686 -0.064644516 252
0.60788727 1.1909134 -0.065026373 273
0.61610216 1.1889307 -0.065179117 296
0.62524545 1.1886562 -0.065484598 341
0.63205683 1.1839182 -0.06540823 245
0.64263946 1.1861516 -0.065942824 335
0.65134871 1.1848061 -0.066171937 298
0.66103852 1.1851391 -0.066553794 325
0.66977334 1.1836628 -0.066782907 322
0.67901188 1.1829882 -0.067088388 301
0.68826735 1.1822447 -0.067393877 351
0.69753915 1.1814319 -0.067699358 278
0.70682681 1.1805497 -0.068004839 272
0.71664798 1.1804498 -0.068386696 266
0.72649449 1.1802738 -0.068768553 317
0.7379514 1.1825575 -0.069379516 260
0.7494635 1.1847447 -0.069990486 285
0.76210791 1.1885128 -0.0707542 252
0.77265042 1.1888276 -0.071212426 285
0.7832253 1.1890577 -0.071670651 271
0.793832 1.1892025 -0.072128877 249
0.80335122 1.187611 -0.072434358 257
0.81344503 1.1867691 -0.072816215 264
0.82412815 1.1866666 -0.073274441 250
0.8336916 1.1848475 -0.073579922 220
0.84558129 1.1862012 -0.074190892 222
0.85635012 1.1858377 -0.074649118 224
0.86596751 1.183778 -0.074954599 254
0.87678027 1.1832461 -0.075412825 226
0.8882181 1.1834229 -0.075947426 248
0.89969099 1.1835036 -0.07648202 262
0.91058928 1.1826984 -0.076940246 220
0.92273885 1.1833754 -0.077551216 254
0.93369371 1.1823835 -0.078009441 241
0.94467109 1.1813016 -0.078467667 273
0.95629823 1.1809037 -0.079002261 255
0.96732306 1.1796368 -0.079460487 253
0.97964329 1.1798122 -0.080071457 237
0.99071747 1.1783551 -0.080529682 238
1.0037512 1.1790826 -0.081217021 240
1.0174824 1.1804491 -0.081980735 227
1.0306119 1.1809405 -0.082668073 232
1.0437855 1.1813148 -0.083355412 246
1.0583328 1.1830571 -0.084195487 226
1.0716008 1.1831878 -0.084882833 213
1.08491 1.1832 -0.085570171 244
1.0989385 1.1838236 -0.086333878 226
1.1102817 1.1814148 -0.086792104 243
1.1223243 1.1796331 -0.087326698 211
1.1330024 1.1763127 -0.087708555 230
1.1422886 1.1714787 -0.087937668 208
1.1627735 1.1779205 -0.089388721 106
1.1713898 1.1721733 -0.089541458 36
1.1828177 1.1691663 -0.089999683 53
1.1942527 1.1660631 -0.090457909 33
1.2049758 1.1621717 -0.090839766 34
1.2200304 1.1623161 -0.091679849 43
1.2351317 1.1623192 -0.092519931 25
1.2466249 1.1587888 -0.092978157 25
1.2640004 1.1605517 -0.094047345 52
1.2733148 1.1547821 -0.094276458 32
1.2848352 1.150936 -0.094734684 33
1.2985978 1.1489726 -0.095422022 50
1.3476921 1.1776969 -0.099698804 122
1.3571588 1.1713583 -0.099927917 166
1.362802 1.1617163 -0.099775173 98
1.4004314 1.1789992 -0.10283001 18
1.4099405 1.172295 -0.10305912 9
1.4371527 1.1800603 -0.10504477 5
1.4443663 1.1712199 -0.10504477 6
0 0 -0 4
0 0 -0 5
0 0 -0 6
0 0 -0 4
0 0 -0 6
0 0 -0 4
0 0 -0 5
0 0 -0 5
0 0 -0 4
0 0 -0 4
0 0 -0 5
0 0 -0 4
0 0 -0 6
0 0 -0 3
0 0 -0 5
0 0 -0 7
0 0 -0 4
0 0 -0 4
0 0 -0 4
0 0 -0 6
0 0 -0 5
0 0 -0 5
0 0 -0 6
2.2367656 1.3223166 -0.16163567 6
0 0 -0 5
2.6038916 1.496328 -0.19264229 8
2.2737422 1.2882882 -0.16278124 6
2.3103383 1.290344 -0.16530147 9
2.2998645 1.2660543 -0.16369769 16
2.3189857 1.2580948 -0.16469051 12
3.1947477 1.7074299 -0.24006867 56
3.2016346 1.685938 -0.23976319 70
3.2030668 1.6616728 -0.23899949 84
3.2087624 1.6397207 -0.23861763 118
3.1964936 1.6088021 -0.23670834 36
0 0 -0 5
3.1792507 1.5515379 -0.23357715 9
3.1788232 1.5272547 -0.23273706 7
0 0 -0 5
0 0 -0 4
3.2054896 1.4680693 -0.23266068 5
3.2062545 1.4446895 -0.23197335 7
3.2159703 1.4253927 -0.23204972 8
0 0 -0 6
3.2442188 1.3905306 -0.23296617 7
3.248095 1.3686639 -0.23258431 14
3.2398481 1.3418461 -0.23120964 8
3.2470968 1.321566 -0.23113327 7
3.2542188 1.3012474 -0.2310569 14
3.2714236 1.2848974 -0.23182061 10
3.2848284 1.2669512 -0.23227884 10
3.2888103 1.2453609 -0.23197335 17
3.298259 1.2258518 -0.23212609 10
3.3038449 1.2049083 -0.23197335 14
3.322443 1.1886404 -0.2328898 10
3.3324966 1.1692212 -0.23311891 10
3.3480949 1.1516675 -0.23380625 19
3.40329 1.1473314 -0.23770118 20
3.4566627 1.1417359 -0.24144335 126
3.5812507 1.158523 -0.25091335 45
3.6120574 1.1440463 -0.25282264 51
3.6837766 1.141917 -0.25801584 41
3.7422435 1.1349027 -0.26213989 46
3.8332655 1.136843 -0.26886055 22
3.8756049 1.1235632 -0.27168626 35
7.813138 2.2119715 -0.58457822 9
4.4695811 1.2363276 -0.31781435 33
7.9003425 2.1322854 -0.58938956 34
4.7312632 1.2463495 -0.3373653 48
4.7958031 1.2319182 -0.3418712 53
7.863771 1.9678775 -0.58350903 55
5.0934358 1.2418773 -0.36417153 53
7.808743 1.8525968 -0.57732296 46
7.8860307 1.8198849 -0.58251619 57
7.8532667 1.7616483 -0.57907951 23
0 0 -0 5
0 0 -0 6
5.9210281 1.2144853 -0.4255738 22
5.9635763 1.1851214 -0.42832315 11
5.9452777 1.1436152 -0.42633751 5
6.0208039 1.1198641 -0.43168348 11
4.5574231 0.81906736 -0.31727973 119
4.5741525 0.79312932 -0.31819621 331
6.6304898 1.1072911 -0.47750607 68
6.8507905 1.1008787 -0.49407858 197
7.0968757 1.0957547 -0.51263672 208
7.3421602 1.0875051 -0.53111851 213
7.5787168 1.0750263 -0.54891294 288
7.8361368 1.0624945 -0.56831115 223
7.878108 1.0189921 -0.57106054 287
7.8901496 0.97136384 -0.57151878 267
7.8761544 0.92062026 -0.56999135 266
7.8548965 0.86931843 -0.56792933 264
7.8551245 0.82058805 -0.56754744 261
7.8203187 0.76847994 -0.56449264 153
7.8636098 0.72404051 -0.56747109 275
7.8410816 0.67347687 -0.56540906 302
7.8261814 0.62384969 -0.56395805 307
7.7771587 0.57194942 -0.55991036 150
3.0490909 0.20614719 -0.19668995 149
3.0453222 0.18713059 -0.19630809 123
3.0404396 0.16811332 -0.19584987 158
3.0394223 0.14935726 -0.19569713 145
3.0362966 0.13053514 -0.19539164 156
3.0330548 0.11175699 -0.19508617 161
3.0296969 0.093023553 -0.19478068 175
3.0262237 0.07433553 -0.19447519 145
3.0206411 0.05565767 -0.19401696 158
3.0149438 0.037051123 -0.19355874 183
3.0091319 0.018516587 -0.19310051 157
3.0002153 5.5880493e-05 -0.19241318 166
2.9911857 -0.018294705 -0.19172584 178
2.9850349 -0.0365723 -0.19126761 150
2.9817638 -0.054831274 -0.1910385 156
2.982368 -0.073150836 -0.19111487 147
2.9808664 -0.091417968 -0.1910385 152
2.9772601 -0.10959529 -0.19080938 165
2.9685624 -0.1275159 -0.19019842 159
2.9607532 -0.14538319 -0.18966383 191
2.9508455 -0.16304867 -0.18897648 165
2.9448135 -0.1808441 -0.18859462 167
2.9376798 -0.19850403 -0.1881364 176
2.9344177 -0.21637812 -0.18798366 143
2.9260778 -0.23382057 -0.18744907 149
2.9226012 -0.25159842 -0.18729632 169
2.9200096 -0.26943442 -0.18721995 137
2.9173093 -0.28724808 -0.18714358 135
7.8656654 -0.82523608 -0.56838757 57
7.8773003 -0.87535793 -0.56968588 287
7.8688102 -0.92332661 -0.56945676 260
7.893672 -0.97538638 -0.57182425 276
7.8964376 -1.0249591 -0.57251155 277
7.8386259 -1.0663946 -0.56854028 208
7.882278 -1.1216427 -0.5724352 276
7.9265313 -1.1776131 -0.57640648 298
7.8777733 -1.2198131 -0.57319891 202
5.552959 -0.89440787 -0.39342162 54
5.3752775 -0.89962405 -0.38005668 44
4.8116889 -0.83555949 -0.33667797 285
4.7829208 -0.86082327 -0.33484507 508
4.7814698 -0.89088601 -0.33515054 537
4.7905984 -0.92304099 -0.33629611 503
4.7965789 -0.9547568 -0.33721256 479
4.79356 -0.98477268 -0.33744168 434
4.7640185 -1.009202 -0.33560878 293
4.5473318 -0.99243909 -0.31911266 166
4.1238375 -0.92644763 -0.28634951 85
4.1151609 -0.95105922 -0.28612038 107
4.1121583 -0.97698367 -0.28634951 81
4.1167402 -1.0048006 -0.28718957 102
4.1192017 -1.0322253 -0.2878769 82
4.1137562 -1.0577292 -0.28795329 79
2.3053639 -0.60732985 -0.14521591 20
2.3006315 -0.62120348 -0.14513953 46
2.2612247 -0.62545544 -0.14231381 29
2.2256904 -0.63033634 -0.13979357 29
2.1796498 -0.63174635 -0.13643324 28
2.1279426 -0.63091195 -0.1326147 19
2.0715592 -0.62801838 -0.12841429 34
2.0533831 -0.63628286 -0.12726873 28
1.9962174 -0.63198751 -0.12299195 39
1.9562573 -0.63254666 -0.12008985 51
1.9031141 -0.62825608 -0.11611857 284
1.9001681 -0.64024043 -0.11619493 229
1.8311558 -0.62948263 -0.11092534 61
1.7755196 -0.62252969 -0.10672493 41
1.7369356 -0.62097096 -0.1038992 42
1.7059317 -0.62169868 -0.10168444 31
1.6777886 -0.62311292 -0.099698804 44
1.6366408 -0.61925691 -0.096643962 37
1.5993254 -0.61635673 -0.093894608 39
1.5713876 -0.61667126 -0.091908962 50
1.5379533 -0.61444306 -0.089465089 45
1.5082999 -0.61333323 -0.087326698 51
1.4851663 -0.61455637 -0.085722908 53
1.4611566 -0.6151315 -0.08404275 58
1.4445268 -0.61858088 -0.082973555 62
1.4242547 -0.62025434 -0.081598878 66
1.408574 -0.62372458 -0.080606051 92
1.3910869 -0.62620598 -0.079460487 139
1.3872185 -0.63472974 -0.079460487 142
1.3805864 -0.64196628 -0.079231374 170
1.3784237 -0.65127861 -0.079384118 174
1.3770972 -0.6610207 -0.079613231 188
1.3739113 -0.66989559 -0.0796896 174
1.3751341 -0.6809721 -0.080147825 184
1.3736012 -0.69074285 -0.080376938 174
1.3737754 -0.70142853 -0.080758795 169
1.3721004 -0.71122319 -0.080987908 163
1.3738848 -0.72288346 -0.081522509 183
1.3720609 -0.7327109 -0.081751622 157
1.3719206 -0.74349457 -0.082133472 179
1.3751928 -0.75622839 -0.08282081 167
1.3792304 -0.76951671 -0.083584525 155
1.3762175 -0.77894855 -0.083737262 192
1.3826483 -0.79384041 -0.084730089 157
1.3760289 -0.80130446 -0.084577344 175
1.3770934 -0.81328619 -0.085111946 170
1.367802 -0.81915593 -0.084730089 186
1.3653057 -0.82908767 -0.084959202 169
1.3593441 -0.83692604 -0.084882833 172
1.3524923 -0.84419394 -0.084730089 177
1.3456026 -0.85140932 -0.084577344 154
1.3369976 -0.85749412 -0.084271863 181
1.3208485 -0.85860908 -0.083279036 255
1.3088975 -0.86230421 -0.082668073 223
1.2936358 -0.86366814 -0.081751622 222
1.2726291 -0.86096221 -0.08030057 186
1.2566367 -0.86141771 -0.07930775 183
1.2431426 -0.86341792 -0.078544036 175
1.2239667 -0.86126417 -0.077245727 178
1.1951271 -0.85195494 -0.075030975 159
1.1801827 -0.8522594 -0.074114524 149
1.1620628 -0.85005552 -0.072892584 143
1.1464167 -0.84944445 -0.071899764 149
1.1260403 -0.84507877 -0.070448712 154
1.1097279 -0.84351557 -0.069379516 130
1.0950564 -0.84300214 -0.068463065 143
1.0741469 -0.83743089 -0.066935651 145
1.0572578 -0.83472788 -0.06579008 144
1.0419991 -0.83309621 -0.06479726 147
1.0268008 -0.83130896 -0.06380444 155
1.0170574 -0.83379668 -0.063346215 148
1.0011895 -0.83109599 -0.062277019 167
0.98691887 -0.82951671 -0.061360564 155
0.97574055 -0.83038151 -0.060749598 161
0.96232474 -0.8291859 -0.059909515 176
0.94820988 -0.82720101 -0.058993064 137
0.94162303 -0.83168203 -0.058840323 89
0.92536265 -0.82746416 -0.057694759 114
0.91583681 -0.82910728 -0.057236534 135
0.90485692 -0.82931602 -0.056625564 140
0.89536971 -0.83077919 -0.056167338 132
0.88226837 -0.8287406 -0.055327259 177
0.8692261 -0.82657272 -0.054487176 161
0.85767919 -0.82566077 -0.053799838 157
0.84688979 -0.82533503 -0.053188872 176
0.83684605 -0.82560915 -0.052654274 149
0.82894534 -0.82790715 -0.052348789 153
0.81824625 -0.82730097 -0.051737823 185
0.80828214 -0.82730877 -0.051203225 182
0.79765725 -0.82650751 -0.050592255 174
0.78569829 -0.82416236 -0.049828548 187
0.77516401 -0.82315511 -0.049217578 217
0.76399356 -0.82131904 -0.04853024 179
0.75422275 -0.82084692 -0.047995642 211
0.74716395 -0.82324219 -0.047766529 191
0.73611557 -0.82112306 -0.047079191 221
0.72644198 -0.82039398 -0.046544593 214
0.71746081 -0.82032853 -0.046086367 204
0.70720595 -0.81867343 -0.045475401 209
0.69764501 -0.8176828 -0.044940803 202
0.69004798 -0.8188954 -0.044635318 186
0.68182546 -0.8192786 -0.044253465 212
0.67552114 -0.82190478 -0.044100724 219
0.6685828 -0.82370967 -0.043871611 209
0.66102499 -0.82468176 -0.043566126 204
0.65162671 -0.82324475 -0.043031529 204
0.64104486 -0.82015109 -0.04234419 227
0.63174224 -0.8185389 -0.041809592 228
0.62248379 -0.81684363 -0.041274995 206
0.61327004 -0.8150658 -0.040740401 185
0.6058827 -0.8156091 -0.040434916 205
0.59910059 -0.81689721 -0.040205803 217
0.5917418 -0.81732464 -0.039900318 205
0.58497918 -0.81850445 -0.039671205 205
0.57879829 -0.82044762 -0.039518464 208
0.57261556 -0.82234579 -0.03936572 214
0.56586766 -0.82337666 -0.039136607 261
0.5591287 -0.82435572 -0.038907494 210
0.55350637 -0.82694173 -0.038831126 236
0.54567927 -0.82615924 -0.038449269 214
0.53679579 -0.82364011 -0.037914671 198
0.52742565 -0.8202039 -0.037303705 86
0.52025056 -0.82005435 -0.03699822 145
0.50940168 -0.81392688 -0.036158141 202
0.5033524 -0.81533909 -0.036005396 196
0.49782258 -0.81755996 -0.035929028 195
0.48921078 -0.81461126 -0.03539443 208
0.48369619 -0.81673914 -0.035318058 208
0.47666866 -0.81624514 -0.035012577 252
0.47214776 -0.82001925 -0.035088945 218
0.46808961 -0.82463634 -0.03524169 208
0.46447834 -0.83010513 -0.035470802 188
0.45505208 -0.82507628 -0.034783464 210
0.45140621 -0.83048272 -0.035012577 193
0.4434838 -0.82795978 -0.034554351 177
0.43235943 -0.81919432 -0.033561528 250
0.4259482 -0.8191762 -0.033332415 222
0.41864669 -0.81733423 -0.032950558 218
0.41093594 -0.81454295 -0.032492332 239
0.40371779 -0.81258148 -0.032110479 290
0.39916128 -0.81593955 -0.032186847 254
0.3919898 -0.81387901 -0.031804994 306
0.38571063 -0.81356436 -0.031575881 274
0.38071144 -0.81591576 -0.031575881 297
0.37445328 -0.81551641 -0.031346768 293
0.36821437 -0.81507105 -0.031117655 283
0.36280254 -0.81640333 -0.031041283 322
0.35579577 -0.81404334 -0.03065943 283
0.34961671 -0.81346142 -0.030430317 284
0.34423193 -0.81467235 -0.030353945 340
0.33503327 -0.8066346 -0.029513864 271
0.33120424 -0.81144607 -0.029742977 340
0.32510939 -0.81068528 -0.029513864 349
0.31903639 -0.80988026 -0.029284751 382
0.31406105 -0.81182259 -0.029284751 373
0.30730996 -0.80907142 -0.028902896 345
0.3016457 -0.80907238 -0.028750155 309
0.29633436 -0.80997115 -0.028673783 370
0.29001665 -0.80801851 -0.0283683 356
0.28406391 -0.80695993 -0.028139187 405
0.27845913 -0.8068018 -0.027986445 384
0.27223057 -0.80471545 -0.027680961 370
0.26666296 -0.80447692 -0.027528219 359
0.26141518 -0.80514926 -0.027451847 358
0.25586841 -0.80483681 -0.027299106 390
0.24974547 -0.80258179 -0.026993621 363
0.24481623 -0.80409908 -0.026993621 373
0.23902808 -0.8027181 -0.026764508 394
0.2335435 -0.8022542 -0.026611768 366
0.22807363 -0.80175328 -0.026459025 357
0.22288428 -0.80217654 -0.026382653 388
0.2182177 -0.8044917 -0.026459025 381
0.21353109 -0.80677974 -0.026535396 394
0.20808108 -0.80614322 -0.026382653 383
0.20264694 -0.80547023 -0.026229912 405
0.19722891 -0.80476099 -0.02607717 408
0.19159721 -0.80304545 -0.025848057 401
0.18644214 -0.80323434 -0.025771687 419
0.18151008 -0.80436325 -0.025771687 414
0.17614692 -0.80351329 -0.025618944 391
0.17121334 -0.80457902 -0.025618944 410
0.16627331 -0.80561441 -0.025618944 411
0.16093871 -0.80466348 -0.025466202 377
0.15581021 -0.80465668 -0.025389832 451
0.15050571 -0.80363697 -0.025237089 438
0.14521961 -0.8025825 -0.025084347 439
0.14046241 -0.80444092 -0.025160719 433
0.13552381 -0.80528766 -0.025160719 430
0.13026406 -0.80413508 -0.025007976 475
0.12532753 -0.80491924 -0.025007976 449
0.12024034 -0.80468673 -0.024931606 475
0.11530061 -0.80540937 -0.024931606 364
0.11196239 -0.81795835 -0.025848057 246
0.1051528 -0.80478591 -0.024778863 390
0.099482633 -0.79947823 -0.024320638 512
0.09526892 -0.80601567 -0.024778863 351
0.089445248 -0.7986567 -0.024167895 413
0.08443965 -0.79819882 -0.024091525 538
0.079443038 -0.79770958 -0.024015153 515
0.074546888 -0.79818201 -0.024015153 533
0.069647938 -0.7986244 -0.024015153 548
0.064746358 -0.79903674 -0.024015153 564
0.059988301 -0.80140775 -0.024167895 606
0.05500295 -0.80076593 -0.024091525 611
0.050027736 -0.80009311 -0.024015153 595
0.045117512 -0.800385 -0.024015153 602
0.040448368 -0.80562627 -0.024397008 644
0.035631709 -0.80884784 -0.024626121 701
0.03077703 -0.81204051 -0.024855234 722
0.025763648 -0.81121743 -0.024778863 698
0.020809727 -0.81235701 -0.024855234 715
0.015806822 -0.81147248 -0.024778863 783
0.010815558 -0.81055719 -0.024702491 703
0.0058418689 -0.81060833 -0.024702491 774
0.00086795969 -0.81062889 -0.024702491 764
-0.0041059819 -0.81061894 -0.024702491 750
-0.0090545584 -0.80858451 -0.024549751 782
-0.014015769 -0.8085137 -0.024549751 765
-0.018951613 -0.80741572 -0.024473378 816
-0.023936421 -0.80828083 -0.024549751 798
-0.028895488 -0.80811876 -0.024549751 787
-0.033939831 -0.80991852 -0.024702491 798
-0.038859468 -0.80869919 -0.024626121 820
-0.043876223 -0.80944103 -0.024702491 800
-0.048842035 -0.8091566 -0.024702491 821
-0.053873621 -0.80983645 -0.024778863 776
-0.058841672 -0.80949068 -0.024778863 778
-0.063727684 -0.80812049 -0.024702491 714
-0.068599105 -0.80672091 -0.024626121 714
-0.073547758 -0.80628479 -0.024626121 722
-0.078297451 -0.80383384 -0.024473378 732
-0.082915649 -0.80036342 -0.024244266 725
-0.08782503 -0.79983962 -0.024244266 645
-0.092382059 -0.79631484 -0.024015153 670
-0.097266413 -0.79573303 -0.024015153 659
-0.10240409 -0.79709876 -0.024167895 597
-0.10756218 -0.79843134 -0.024320638 657
-0.11217801 -0.79578209 -0.024167895 591
-0.11720539 -0.79606503 -0.024244266 576
-0.12224046 -0.79631621 -0.024320638 560
-0.12696551 -0.79456681 -0.024244266 576
-0.13249767 -0.79770625 -0.024549751 539
-0.13773146 -0.79884291 -0.024702491 499
-0.14298418 -0.79994529 -0.024855234 496
-0.14752412 -0.79709256 -0.024702491 534
-0.15241222 -0.79617238 -0.024702491 530
-0.15846387 -0.80108929 -0.025160719 457
-0.16337627 -0.80010194 -0.025160719 451
-0.1684894 -0.8000598 -0.025237089 449
-0.173821 -0.80095905 -0.025389832 461
-0.17873232 -0.79987746 -0.025389832 453
-0.18363692 -0.79876572 -0.025389832 434
-0.18853459 -0.79762387 -0.025389832 406
-0.19413525 -0.79935777 -0.025618944 453
-0.19976425 -0.80105287 -0.025848057 401
