# .PCD v0.7 - Point Cloud Data file format
VERSION 0.7
FIELDS x y z intensity
SIZE 4 4 4 4
TYPE F F F F
COUNT 1 1 1 1
WIDTH 1337
HEIGHT 1
VIEWPOINT 0 0 0 1 0 0 0
POINTS 1337
DATA ascii
1.1688092 1.1840261 -0.049321614 174
1.1753458 1.1761264 -0.049269799 76
1.1825402 1.1688924 -0.049269799 79
1.2154312 1.1867127 -0.051135071 154
1.2298827 1.1861603 -0.051653203 186
1.2414789 1.1827216 -0.051964082 191
1.2538067 1.1798691 -0.052326772 195
1.2683419 1.1789478 -0.052844901 182
1.2829127 1.1778923 -0.053363033 190
1.2982582 1.1773726 -0.053932976 196
1.3084352 1.1720477 -0.054140229 156
1.3290728 1.1758997 -0.055072863 199
1.3422824 1.1729758 -0.055487368 169
1.3517237 1.1666735 -0.05564281 189
1.3626589 1.1615944 -0.055901874 169
1.4033933 1.1814895 -0.058181647 98
1.3752743 1.143509 -0.055798247 15
0 0 -0 5
1.4023967 1.1372309 -0.05667907 7
1.4077883 1.127357 -0.056575444 8
0 0 -0 6
0 0 -0 4
0 0 -0 4
0 0 -0 4
0 0 -0 4
0 0 -0 6
0 0 -0 4
0 0 -0 4
0 0 -0 5
0 0 -0 5
0 0 -0 7
0 0 -0 7
0 0 -0 6
0 0 -0 4
0 0 -0 4
0 0 -0 10
2.4691057 1.5849481 -0.11522783 16
0 0 -0 5
2.1816914 1.3631114 -0.096471503 5
2.1840613 1.3460342 -0.096108817 4
2.1939864 1.3336443 -0.096212439 4
0 0 -0 5
2.2256653 1.3157612 -0.097145073 4
2.2328339 1.3015774 -0.097093262 7
0 0 -0 4
2.2834022 1.2937557 -0.099165782 6
0 0 -0 5
2.3393598 1.2877731 -0.10154919 16
2.3033171 1.2496033 -0.09895853 39
2.4043176 1.2853131 -0.10445072 18
7.166018 3.7718942 -0.3831532 19
7.2103057 3.7388835 -0.38439673 55
3.2342737 1.6527469 -0.15144517 43
3.2318633 1.6265893 -0.15071979 118
3.2319388 1.6018531 -0.15014984 110
3.233628 1.578053 -0.14968352 107
7.1892581 3.4524193 -0.37678021 30
6.9972143 3.3075533 -0.36455232 83
7.0083222 3.2603459 -0.36403418 89
7.0182061 3.2127113 -0.36346424 97
7.0022721 3.1536 -0.36144355 68
7.0342741 3.1162364 -0.36216891 78
7.0386133 3.0666363 -0.3613399 84
7.0178223 3.0064862 -0.35911193 67
6.9965596 2.9467072 -0.35688397 84
7.0145082 2.9037218 -0.35688397 72
0 0 -0 6
0 0 -0 7
0 0 -0 4
0 0 -0 6
3.3313525 1.261454 -0.14781825 6
0 0 -0 4
3.3475201 1.2208201 -0.14787006 16
3.3605902 1.2022736 -0.14818095 11
3.3631918 1.1799792 -0.14792188 11
3.3713131 1.1596454 -0.1479737 6
3.3802578 1.139575 -0.14807732 9
3.5379772 1.1685652 -0.15631559 72
3.5374787 1.1443779 -0.15590109 109
3.655834 1.1578968 -0.16196322 42
3.7115221 1.1505085 -0.16460569 32
3.7424057 1.1349518 -0.16590102 52
3.8029203 1.127853 -0.16880254 52
3.848139 1.1156092 -0.17087507 36
3.9759889 1.1262357 -0.17740352 10
7.065969 1.9538083 -0.34336078 35
7.1202488 1.9218594 -0.34564054 46
7.1125917 1.8730509 -0.34460428 53
7.1355586 1.8323524 -0.34522605 54
7.146667 1.7885349 -0.34522605 48
0 0 -0 4
5.3315291 1.2652675 -0.24729934 4
0 0 -0 5
5.3486032 1.200183 -0.24740297 5
5.434906 1.1845515 -0.25159982 6
5.4508657 1.1530395 -0.25206614 13
5.4871879 1.125586 -0.25362054 18
5.5135818 1.0957854 -0.25465679 13
5.8369727 1.1228038 -0.27139243 126
5.9988847 1.1157916 -0.27957889 252
6.180584 1.1103616 -0.28880161 255
6.4067168 1.1104093 -0.30035594 247
6.578897 1.0986843 -0.30906051 215
6.8477993 1.1003985 -0.32284281 322
7.029119 1.0853045 -0.33201373 238
7.1848192 1.0642254 -0.33983749 311
7.1991243 1.0212409 -0.34025198 299
7.1874418 0.97463614 -0.33931935 315
7.1873441 0.92974871 -0.33900848 312
7.1948962 0.88587427 -0.3391121 297
7.1863093 0.84008944 -0.33838671 318
7.1426907 0.79060364 -0.33584788 196
7.1901178 0.75121742 -0.33807585 287
7.194592 0.70708555 -0.33807585 298
7.1828837 0.66146439 -0.33724684 280
7.182827 0.6170373 -0.33703959 276
7.178514 0.57231909 -0.33662507 307
7.1828866 0.52833486 -0.3366769 293
7.1710467 0.48324677 -0.33589968 330
3.0441341 0.18705803 -0.12123815 129
3.0422332 0.1682118 -0.12108272 156
3.0402157 0.14939596 -0.12092727 175
3.0380819 0.1306112 -0.12077183 179
3.0248542 0.11145799 -0.12004645 120
3.0334668 0.093137845 -0.12046096 146
3.0359778 0.074571364 -0.12056458 147
3.0363781 0.055941548 -0.12056458 159
3.037663 0.037321515 -0.1206164 170
3.0348389 0.01866479 -0.12046096 171
3.026907 4.5981007e-05 -0.12004645 142
3.0168638 -0.018461792 -0.11952832 152
3.0077066 -0.036858946 -0.11906201 136
3.0024314 -0.05521943 -0.11880293 160
2.9990411 -0.073566325 -0.1186475 145
2.9985332 -0.091966711 -0.1186475 153
2.9999084 -0.11043789 -0.11875112 159
2.9971788 -0.1287564 -0.1186475 167
2.9953349 -0.14709495 -0.11859568 170
2.9893904 -0.16519375 -0.11833662 154
2.9843335 -0.18328677 -0.11812937 158
2.9811599 -0.20145941 -0.11802574 156
2.9788718 -0.21967383 -0.11797393 160
2.9774678 -0.2379477 -0.11797393 152
2.9739618 -0.25604051 -0.1178703 137
2.9723349 -0.27428359 -0.1178703 161
2.9715898 -0.29261458 -0.11792211 130
2.9647725 -0.31032068 -0.11766305 154
2.9548724 -0.32762277 -0.11724854 157
2.9518147 -0.34563085 -0.11719673 46
7.2074084 -0.89048541 -0.33978567 335
7.2107215 -0.93585068 -0.34025198 333
7.2078123 -0.98048156 -0.34040743 345
7.2155018 -1.026661 -0.34113282 305
7.2120299 -1.0713559 -0.34128824 301
5.791131 -0.8963992 -0.26704013 201
5.4039721 -0.87037897 -0.24698846 59
5.3020072 -0.88734519 -0.24191079 99
5.2541556 -0.91250378 -0.23968282 326
5.2435436 -0.94383985 -0.23942377 456
5.2268548 -0.97398114 -0.23885381 444
5.2207799 -1.0060341 -0.23885381 434
5.2252822 -1.0401964 -0.23942377 366
4.5017958 -0.92476094 -0.20144477 24
4.5771217 -0.96956331 -0.20574526 20
4.2061982 -0.91789818 -0.18636718 44
4.1673603 -0.93623793 -0.18460554 72
4.1586185 -0.9611153 -0.18445009 103
4.1575007 -0.98776954 -0.18470916 69
4.1542716 -1.0139722 -0.1848646 91
4.1518464 -1.0404152 -0.18507186 89
4.1473188 -1.0663688 -0.18517548 85
2.3379538 -0.61593246 -0.088440478 23
2.3081024 -0.62322468 -0.087041527 17
2.2715139 -0.62830698 -0.085279882 14
2.232069 -0.6321463 -0.083362803 22
2.1715651 -0.62939852 -0.08030583 25
2.1217113 -0.62906086 -0.077818803 27
2.0939229 -0.6348114 -0.076523475 24
2.0718672 -0.64202148 -0.075539023 23
2.0126777 -0.63720882 -0.072533868 27
1.918476 -0.62030649 -0.067611627 75
1.8776563 -0.6198355 -0.065590918 61
1.8473244 -0.62240106 -0.064140148 34
1.8038135 -0.62006491 -0.061964002 39
1.772651 -0.62152189 -0.060461424 38
1.7434199 -0.62329376 -0.05906247 42
1.703916 -0.62096262 -0.057093576 47
1.6691873 -0.61991215 -0.055383742 44
1.6373383 -0.61952138 -0.05382935 50
1.6036948 -0.61804402 -0.052171331 43
1.5710615 -0.61654299 -0.050565127 41
1.5412894 -0.61577868 -0.049114361 45
1.5097374 -0.61391896 -0.047559969 61
1.4838021 -0.61399066 -0.046316456 53
1.4717256 -0.6195901 -0.045850139 48
1.4513769 -0.62152028 -0.044917502 62
1.4365524 -0.62562096 -0.044295747 57
1.4053017 -0.62227261 -0.042741355 133
1.3987261 -0.62965178 -0.042585913 127
1.3975596 -0.63947099 -0.042741355 170
1.3917992 -0.64719069 -0.042637728 161
1.3896071 -0.65657306 -0.042741355 150
1.3846524 -0.66465431 -0.042689539 151
1.38324 -0.67445296 -0.042844981 174
1.3817593 -0.68425924 -0.043000419 142
1.3784267 -0.693174 -0.043052234 164
1.3768147 -0.7029832 -0.043207671 151
1.3813381 -0.71602046 -0.043725803 175
1.3839862 -0.72820812 -0.044140305 192
1.3812531 -0.73762858 -0.044243932 168
1.3810893 -0.74847233 -0.044503 180
1.3817191 -0.75982362 -0.044813875 156
1.3805178 -0.77023625 -0.045021128 168
1.3818469 -0.78214037 -0.045383822 172
1.3848131 -0.79508543 -0.045850139 171
1.383359 -0.8055802 -0.046057392 163
1.3852662 -0.8181209 -0.046471894 158
1.3793638 -0.82609159 -0.046420082 168
1.3708562 -0.8324638 -0.04621283 162
1.3665725 -0.8413837 -0.046264641 198
1.3520695 -0.84392953 -0.045694698 162
1.3468658 -0.85220981 -0.045694698 205
1.3315287 -0.8539809 -0.045072943 227
1.3220792 -0.85941041 -0.044813875 266
1.3009439 -0.85705584 -0.04382943 213
1.2765671 -0.85225409 -0.042637728 200
1.2613931 -0.85334831 -0.04201597 182
1.2446074 -0.85315818 -0.041290589 169
1.2327908 -0.85621631 -0.040876083 174
1.2144537 -0.85455906 -0.040047076 177
1.1904945 -0.848647 -0.038855374 166
1.174746 -0.84832674 -0.038181804 157
1.1534077 -0.84371358 -0.037145544 137
1.1353786 -0.84125173 -0.036316533 158
1.11902 -0.83980095 -0.035591152 137
1.0995443 -0.83576143 -0.034658514 164
1.0856965 -0.83578396 -0.034088571 157
1.0726771 -0.83628297 -0.033570442 146
1.0549933 -0.83293682 -0.032741431 138
1.0412885 -0.83252704 -0.032171488 143
1.0245265 -0.82946438 -0.031394292 151
1.0101569 -0.82812923 -0.030772535 134
0.99584252 -0.82664925 -0.030150779 151
0.98311251 -0.82631153 -0.029632648 134
0.96966451 -0.82520109 -0.029062705 158
0.95853531 -0.82591468 -0.0286482 157
0.94818604 -0.82718021 -0.028285509 99
0.93486601 -0.82570273 -0.027715564 118
0.92234385 -0.8247596 -0.027197434 151
0.91060853 -0.82436514 -0.026731117 165
0.90111971 -0.82588422 -0.026420237 147
0.88945246 -0.82527822 -0.025953921 153
0.87782681 -0.8245604 -0.025487602 135
0.86841279 -0.8257978 -0.025176724 174
0.8568604 -0.824871 -0.024710406 161
0.84535235 -0.8238337 -0.024244089 193
0.83602023 -0.82479274 -0.023933211 155
0.82600236 -0.82496202 -0.023570519 196
0.81601411 -0.82503963 -0.023207828 180
0.80466187 -0.82359576 -0.02274151 194
0.79543656 -0.82420182 -0.022430632 193
0.78623432 -0.82472587 -0.022119753 193
0.77773964 -0.82589585 -0.021860687 209
0.76722205 -0.82479703 -0.021446183 218
0.75809729 -0.82507265 -0.021135304 209
0.74765742 -0.82378709 -0.0207208 218
0.73925954 -0.82463759 -0.020461734 201
0.72889578 -0.82317108 -0.020047231 202
0.71595144 -0.81859899 -0.019425474 252
0.707003 -0.81843799 -0.019114595 202
0.6980837 -0.81819814 -0.018803718 209
0.68726605 -0.81558669 -0.018337399 225
0.68033481 -0.81748343 -0.018181959 177
0.66960675 -0.81469262 -0.017715642 222
0.66019571 -0.81335336 -0.017352952 208
0.65394521 -0.8158291 -0.017249325 204
0.64459455 -0.81434011 -0.016886633 223
0.63651514 -0.81434238 -0.016627569 234
0.62967861 -0.81585884 -0.016472129 228
0.62163872 -0.81573212 -0.016213063 259
0.61242521 -0.81394029 -0.015850373 209
0.60504103 -0.81447333 -0.01564312 227
0.5953148 -0.81172264 -0.015228615 193
0.58856881 -0.81293136 -0.015073176 196
0.58067101 -0.81246167 -0.01481411 241
0.573376 -0.81274247 -0.014606859 233
0.56666917 -0.81378472 -0.014451419 221
0.55997121 -0.81477535 -0.014295979 213
0.55272287 -0.81488734 -0.014088728 231
0.54549438 -0.81494123 -0.013881476 231
0.53718728 -0.81326932 -0.013570596 222
0.54633838 -0.83831996 -0.014917737 88
0.52501023 -0.81643772 -0.013363345 162
0.51465112 -0.81120455 -0.012845214 209
0.5064913 -0.80926406 -0.012534335 210
0.49889836 -0.80810457 -0.01227527 250
0.49289384 -0.80944335 -0.012171644 230
0.48689172 -0.81073892 -0.012068018 237
0.4808923 -0.81199133 -0.011964392 250
0.47539842 -0.81406379 -0.011912579 256
0.46939999 -0.81523329 -0.011808952 252
0.46291324 -0.81549084 -0.011653514 240
0.45984706 -0.82180429 -0.011860766 207
0.44950259 -0.81498462 -0.011290822 247
0.4435418 -0.81597131 -0.011187196 229
0.43758586 -0.81691569 -0.011083569 228
0.42884496 -0.81251502 -0.010669065 252
0.4224726 -0.81247121 -0.010513626 228
0.41384628 -0.80793279 -0.010099121 278
0.40753508 -0.80778033 -0.0099436818 267
0.40257096 -0.81026572 -0.0099436818 262
0.39496553 -0.80733478 -0.0096328035 293
0.38870785 -0.80704218 -0.0094773648 306
0.38204202 -0.80580032 -0.009270112 307
0.37540615 -0.8045072 -0.0090628602 317
0.36880058 -0.80316305 -0.0088556074 312
0.3630456 -0.80358958 -0.0087519819 313
0.35608625 -0.80123645 -0.0084929159 287
0.35156199 -0.80432183 -0.0085447291 329
0.34622702 -0.80554581 -0.0084929159 343
0.34011534 -0.80489379 -0.0083374772 353
0.33326104 -0.80235165 -0.0080784122 329
0.32757932 -0.80253118 -0.0079747858 339
0.32227844 -0.8035987 -0.0079229726 358
0.31624725 -0.80277205 -0.0077675334 344
0.31167465 -0.80562925 -0.0078193462 373
0.30531219 -0.80379027 -0.0076120943 339
0.30072206 -0.80658472 -0.007663907 384
0.29576731 -0.80841476 -0.007663907 374
0.2904653 -0.8092739 -0.0076120943 386
0.28450328 -0.80821359 -0.0074566547 395
0.27791622 -0.80522174 -0.0071975896 388
0.27169535 -0.80312616 -0.0069903373 357
0.2658236 -0.80193299 -0.0068348981 413
0.25966969 -0.79974788 -0.0066276458 414
0.25385392 -0.79846972 -0.0064722067 402
0.24835902 -0.79810435 -0.0063685803 382
0.24345727 -0.79961324 -0.0063685803 398
0.23854636 -0.80109203 -0.0063685803 354
0.23279308 -0.79966289 -0.0062131411 408
0.22733827 -0.7991544 -0.0061095152 421
0.22216447 -0.79957169 -0.006057702 442
0.21621385 -0.79706305 -0.0058504497 389
0.2113191 -0.79837471 -0.0058504497 384
0.20666462 -0.8006236 -0.0059022629 438
0.20126361 -0.79993898 -0.0057986369 402
0.1958788 -0.79921824 -0.0056950105 392
0.1909712 -0.80040509 -0.0056950105 429
0.18560757 -0.79961556 -0.0055913846 412
0.18026084 -0.79879045 -0.0054877582 443
0.17471877 -0.7969541 -0.0053323191 421
0.17003193 -0.79898822 -0.0053841323 420
0.1653267 -0.80099481 -0.0054359455 468
0.16060324 -0.80297369 -0.0054877582 451
0.15548481 -0.80296332 -0.0054359455 438
0.150555 -0.80390221 -0.0054359455 454
0.14561951 -0.80481088 -0.0054359455 461
0.14050817 -0.8047052 -0.0053841323 464
0.13540363 -0.80456716 -0.0053323191 443
0.13030607 -0.80439681 -0.0052805059 464
0.12521571 -0.80419421 -0.0052286931 487
0.11867107 -0.7940805 -0.0046587493 347
0.11393655 -0.79578245 -0.0047105625 325
0.11012384 -0.80438358 -0.0051250667 500
0.10518616 -0.80504411 -0.0051250667 495
0.099878885 -0.80270082 -0.0049696276 376
0.094951726 -0.80329853 -0.0049696276 471
0.089582168 -0.79989558 -0.0047623753 591
0.084465191 -0.79844368 -0.0046587493 585
0.07927189 -0.79596525 -0.0045033102 589
0.074295029 -0.79544216 -0.004451497 659
0.069327578 -0.79488808 -0.0043996838 664
0.064607345 -0.79728949 -0.0045033102 655
0.059714049 -0.79767096 -0.0045033102 670
0.055019461 -0.80101156 -0.0046587493 715
0.050225247 -0.80332768 -0.0047623753 705
0.045623682 -0.80960363 -0.005073254 787
0.040557928 -0.80787337 -0.0049696276 760
0.035600144 -0.80810702 -0.0049696276 807
0.030641023 -0.80831027 -0.0049696276 862
0.025680749 -0.80848306 -0.0049696276 853
0.020695368 -0.80762708 -0.0049178144 808
0.015811518 -0.81173283 -0.0051250667 941
0.010794868 -0.80881882 -0.0049696276 905
0.0058376035 -0.80986845 -0.0050214408 944
0.00086823414 -0.80988902 -0.0050214408 893
-0.0040946696 -0.80888045 -0.0049696276 879
-0.0090325391 -0.80684298 -0.0048660017 908
-0.013964312 -0.80577385 -0.0048141885 984
-0.01883355 -0.80267799 -0.0046587493 900
-0.023851346 -0.80554181 -0.0048141885 963
-0.028719353 -0.80338436 -0.0047105625 948
-0.033648286 -0.80319303 -0.0047105625 897
-0.038625322 -0.80396891 -0.0047623753 910
-0.043613147 -0.80471385 -0.0048141885 893
-0.048796389 -0.80841815 -0.0050214408 932
-0.053552665 -0.80511445 -0.0048660017 894
-0.058417909 -0.80377477 -0.0048141885 841
-0.063348681 -0.80340117 -0.0048141885 843
-0.068018913 -0.80001253 -0.0046587493 915
-0.072926417 -0.7995801 -0.0046587493 910
-0.078420699 -0.80508047 -0.0049696276 808
-0.0833591 -0.80458415 -0.0049696276 788
-0.087631717 -0.79810232 -0.0046587493 726
-0.093459368 -0.80548429 -0.005073254 777
-0.098032132 -0.80192238 -0.0049178144 732
-0.10307948 -0.80229604 -0.0049696276 713
-0.10800034 -0.8016485 -0.0049696276 722
-0.11263546 -0.79899335 -0.0048660017 647
-0.11738896 -0.79729939 -0.0048141885 634
-0.12136114 -0.79064286 -0.0045033102 571
-0.12621015 -0.78988332 -0.0045033102 613
-0.13154958 -0.79204881 -0.0046587493 617
-0.13640702 -0.79122674 -0.0046587493 572
-0.14143646 -0.7913577 -0.0047105625 537
-0.14647263 -0.7914567 -0.0047623753 548
-0.15246123 -0.79642648 -0.005073254 513
-0.15734515 -0.79547602 -0.005073254 533
-0.16262554 -0.79645193 -0.0051768799 541
-0.16854538 -0.80032372 -0.0054359455 519
-0.1734529 -0.7992745 -0.0054359455 483
-0.17879224 -0.80014378 -0.0055395714 482
-0.18369846 -0.79903167 -0.0055395714 461
-0.18859777 -0.79788947 -0.0055395714 438
-0.19396411 -0.79865748 -0.0056431973 483
-0.19886093 -0.79745227 -0.0056431973 452
-0.20424816 -0.79815131 -0.0057468237 473
-0.20965144 -0.79881424 -0.0058504497 463
-0.21402732 -0.7955848 -0.0057468237 501
-0.22023846 -0.79906851 -0.0060058888 460
-0.22513731 -0.79770207 -0.0060058888 478
-0.23030618 -0.7972647 -0.006057702 437
-0.23490939 -0.79487926 -0.0060058888 441
-0.23920175 -0.79151183 -0.0059022629 397
-0.24405389 -0.79002917 -0.0059022629 414
-0.25040659 -0.79327643 -0.0061613284 440
-0.25496152 -0.79077494 -0.0061095152 428
-0.26043606 -0.79109192 -0.0062131411 422
-0.26560465 -0.79042524 -0.0062649543 425
-0.27142525 -0.79161328 -0.0064203935 411
-0.27693942 -0.79181737 -0.0065240199 377
-0.28111914 -0.78822285 -0.0064203935 393
-0.28560773 -0.78554505 -0.0063685803 233
-0.29843321 -0.80530465 -0.0075602811 131
-0.30301484 -0.80252457 -0.0075084679 124
-0.30793333 -0.80065018 -0.0075084679 115
-0.61106098 -1.5571208 -0.049787931 25
-0.62097496 -1.5542692 -0.049839746 17
-0.63200748 -1.554129 -0.050046995 20
-0 -0 -0 14
-0.65452492 -1.5545375 -0.050513316 23
-0.66483867 -1.5523276 -0.050616939 18
-0.67395163 -1.5473037 -0.050565127 31
-0.68545818 -1.5477035 -0.050824191 27
-0.69617373 -1.5461994 -0.050979633 30
-0 -0 -0 8
-0 -0 -0 9
-1.7376815 -3.6732273 -0.17382842 13
-0 -0 -0 5
-0 -0 -0 7
-0 -0 -0 6
-1.7217091 -3.4198895 -0.16165234 5
-1.7335647 -3.3914793 -0.16061608 7
-1.7014133 -3.2788565 -0.15465759 5
-1.7093923 -3.2453859 -0.15331045 8
-1.717025 -3.2119415 -0.15196331 9
-0 -0 -0 5
-1.739928 -3.1608889 -0.15020166 12
-1.7661111 -3.1623576 -0.15092704 6
-0 -0 -0 6
-1.7674441 -3.0755193 -0.14704105 6
-0 -0 -0 5
-1.7486128 -2.9581916 -0.14128982 4
-1.7461817 -2.9131513 -0.13921729 8
-1.7406698 -2.8639872 -0.1368857 7
-1.7456293 -2.8328524 -0.13564219 13
-1.763508 -2.8229349 -0.135694 6
-1.7647581 -2.7867553 -0.13413961 4
-1.7802049 -2.7733538 -0.13398416 8
-0 -0 -0 5
-1.7877028 -2.7112894 -0.13149714 4
-1.8037502 -2.699439 -0.13144533 5
-1.7978711 -2.6552515 -0.12937281 9
-1.8062156 -2.6326442 -0.12864742 10
-0 -0 -0 4
-1.8130714 -2.5743649 -0.12636764 12
-1.8189676 -2.5493753 -0.12548682 8
-1.8234551 -2.5227926 -0.12450238 7
-1.8170606 -2.4817514 -0.12258529 5
-1.8453484 -2.4881973 -0.12372518 7
-0 -0 -0 6
-1.7916495 -2.3549232 -0.11652316 5
-1.7780119 -2.307508 -0.11413976 6
-1.7644757 -2.261137 -0.11180817 4
-1.7820337 -2.2549675 -0.11211905 5
-0 -0 -0 4
-1.7844082 -2.201905 -0.11004653 8
-0 -0 -0 8
-0 -0 -0 5
-1.7667432 -2.0999358 -0.10538335 6
-0 -0 -0 7
-1.796295 -2.0826328 -0.10569423 10
-0 -0 -0 6
-1.8323058 -2.0723987 -0.10652324 8
-1.8223304 -2.0358274 -0.10476159 6
-0 -0 -0 6
-1.8235348 -1.9875661 -0.10294814 9
-0 -0 -0 4
-1.8101442 -1.9250411 -0.10009842 10
-1.8315663 -1.9240203 -0.1008238 8
-1.8544303 -1.9242462 -0.10165282 5
-1.8431782 -1.8892525 -0.099942982 6
-1.8350776 -1.8580214 -0.098492213 8
-0 -0 -0 4
-1.8349967 -1.8129128 -0.096834198 9
-1.7645727 -1.7221416 -0.090927504 9
-1.383092 -1.3337209 -0.062689386 44
-1.4390025 -1.3706402 -0.066109046 23
-1.4029933 -1.3200673 -0.06294845 54
-1.4132625 -1.313472 -0.063103892 43
-1.4522104 -1.333122 -0.065280035 33
-1.6357915 -1.4830669 -0.077559739 10
-1.7996758 -1.6114942 -0.088336855 8
-1.805788 -1.597115 -0.088077791 12
-1.7320353 -1.5131174 -0.082326539 7
-0 -0 -0 4
-1.6554207 -1.4108286 -0.075849906 7
-1.5960165 -1.3434457 -0.07123854 8
-1.5988516 -1.3291615 -0.070875853 17
-1.6062049 -1.3186929 -0.070824035 7
-0 -0 -0 4
-1.6136872 -1.292022 -0.070254095 4
-1.6247194 -1.284572 -0.070461348 4
-0 -0 -0 4
-0 -0 -0 5
-0 -0 -0 4
-1.6956893 -1.2742882 -0.073051997 5
-1.7106974 -1.2692111 -0.073518313 5
-0 -0 -0 5
-0 -0 -0 5
-1.8167118 -1.2966404 -0.078803249 17
-1.8377008 -1.2946645 -0.07963226 17
-1.8472506 -1.2845037 -0.079735883 21
-1.8567448 -1.2742743 -0.079839513 19
-1.8603928 -1.2600595 -0.079580449 29
-1.863106 -1.2452935 -0.079269566 24
-1.8598707 -1.226696 -0.078595996 19
-1.8564776 -1.2081853 -0.077922426 26
-1.8546091 -1.190841 -0.077352487 25
-1.8601933 -1.178371 -0.077248856 19
-1.8572224 -1.1605895 -0.076627098 18
-1.8592063 -1.1460305 -0.076316223 26
-1.8593744 -1.1304543 -0.075901717 19
-1.8671324 -1.1195372 -0.075953528 16
-1.8739667 -1.1080596 -0.075953528 26
-1.8798673 -1.0960377 -0.075901717 24
-1.8787625 -1.0800073 -0.0754354 14
-1.8879613 -1.069935 -0.075590841 20
-1.889258 -1.055411 -0.075279959 34
-1.8965734 -1.0442801 -0.075331777 19
-1.9029453 -1.0326233 -0.075331777 19
-1.8986746 -1.0152824 -0.074710019 27
-1.895147 -0.99849796 -0.074140072 21
-1.8905985 -0.98133564 -0.073518313 28
-1.8876901 -0.96517527 -0.073000185 24
-1.8828704 -0.94819033 -0.072378427 23
-1.8823885 -0.93351704 -0.07201574 38
-1.8826953 -0.91932315 -0.071704857 33
-1.8855997 -0.9064573 -0.071549423 30
-1.8929321 -0.89572376 -0.071653046 22
-1.8965814 -0.88324988 -0.071549423 26
-1.8983328 -0.8699339 -0.07134217 21
-1.8981711 -0.85580987 -0.071031287 21
-1.8896896 -0.83808142 -0.070254095 25
-1.891134 -0.82487571 -0.070046842 23
-1.8878975 -0.80971831 -0.069580525 14
-1.8882282 -0.79618174 -0.069321461 15
-1.888464 -0.78267169 -0.069062389 25
-1.88583 -0.76806027 -0.068647891 18
-1.8821607 -0.75314033 -0.068181567 6
-0 -0 -0 5
-1.8931249 -0.73070472 -0.068285197 28
-1.901309 -0.72048831 -0.06849245 23
-1.8982043 -0.70602775 -0.068077944 24
-1.8996857 -0.69334173 -0.067922503 37
-1.896381 -0.67898369 -0.067507997 21
-1.8976842 -0.66634399 -0.067352563 22
-1.8979592 -0.65338939 -0.06714531 18
-1.8981469 -0.64045656 -0.066938058 26
-1.9001442 -0.62817186 -0.066834427 18
-1.9039629 -0.61650097 -0.066834427 19
-1.9067576 -0.60450566 -0.066782616 24
-1.9094769 -0.5924992 -0.066730805 25
-1.9121207 -0.58048218 -0.066678993 31
-1.912774 -0.56788772 -0.066523552 22
-1.9143039 -0.55558485 -0.066419929 33
-1.9215206 -0.54491603 -0.066627182 20
-1.9229028 -0.53258359 -0.066523552 17
-1.9203494 -0.51921433 -0.066212676 27
-1.9206017 -0.50665903 -0.066057235 22
-1.9178705 -0.49337548 -0.06574636 14
-1.9131111 -0.47966 -0.065331854 14
-1.9092262 -0.46625793 -0.06496916 25
-1.9003906 -0.45176971 -0.064347401 22
-1.8943688 -0.43808085 -0.063881084 16
-1.8940977 -0.42579362 -0.06372565 24
-1.8937473 -0.41352627 -0.063570209 27
-1.8991803 -0.40251806 -0.06372565 21
-1.9045492 -0.39145875 -0.063881084 11
-1.9098539 -0.38034868 -0.064036526 22
-1.915094 -0.36918825 -0.064191967 13
-1.918305 -0.35761294 -0.064243779 25
-1.925378 -0.34671772 -0.064502843 22
-1.9304212 -0.33540839 -0.064658284 21
-0 -0 -0 9
-1.9225594 -0.30979455 -0.064036526 24
-1.9046843 -0.29494759 -0.063000262 21
-1.2939589 -0.19263157 -0.030876162 7
-1.2753409 -0.18188632 -0.029839899 12
-1.226952 -0.1673559 -0.027249247 11
-1.2269653 -0.15969636 -0.027197434 8
-1.2090894 -0.14984913 -0.026212985 12
-1.199075 -0.14115374 -0.025643041 7
-1.1949555 -0.13324517 -0.025383977 15
-1.2066765 -0.1270503 -0.025953921 42
-1.2054455 -0.11944884 -0.025850294 54
-1.1982001 -0.11131879 -0.025435789 44
-1.1909004 -0.10328217 -0.025021285 45
-1.1845433 -0.09541855 -0.024658594 31
-1.1801265 -0.087783054 -0.024399528 45
-1.1766573 -0.080272347 -0.024192275 54
-1.1651661 -0.07232058 -0.023570519 42
-1.159605 -0.064841382 -0.02325964 43
-1.159981 -0.05772496 -0.02325964 37
-1.1583178 -0.050521344 -0.023156015 41
-1.157608 -0.043376699 -0.023104202 32
-1.2077624 -0.037786104 -0.025694855 145
-1.2039779 -0.03027815 -0.025487602 168
-1.2041411 -0.02289011 -0.025487602 164
-1.2052574 -0.015513093 -0.025539415 118
-1.2223068 -0.0082153538 -0.026420237 68
-1.2193383 -0.00071637658 -0.026264798 60
-1.2193197 0.0067653558 -0.026264798 61
-1.2192552 0.014246834 -0.026264798 44
-1.2201433 0.021746527 -0.026316611 47
-1.2169919 0.029158141 -0.026161171 24
-1.221781 0.036779933 -0.026420237 52
-1.2185384 0.044164564 -0.026264798 34
-1.2182444 0.051640544 -0.026264798 50
-1.2129174 0.058867723 -0.026005734 46
-1.2095422 0.066142462 -0.025850294 48
-1.2021363 0.073131569 -0.025487602 41
-1.1926976 0.07989686 -0.025021285 61
-1.2042003 -0.029666351 -0.039860602 198
-1.2043597 -0.022276958 -0.039860602 201
-1.2044736 -0.014886728 -0.039860602 180
-1.2035444 -0.0074893995 -0.039796766 183
-1.2095554 -0.00010693121 -0.040179782 73
-1.2165189 0.0073547312 -0.04062663 50
-1.2144551 0.014795347 -0.040498961 59
-1.2173349 0.022300692 -0.040690467 43
-1.2181728 0.029793775 -0.0407543 44
-1.217967 0.037267782 -0.0407543 49
-1.2207073 0.044849344 -0.040945809 51
-1.2234004 0.052465931 -0.041137315 54
-1.2140844 0.059534594 -0.040562794 50
-1.2166857 0.067146964 -0.0407543 60
-1.2072858 0.074064098 -0.040179782 57
-1.1958556 0.08073464 -0.03947759 67
-1.1913567 0.087778747 -0.039222248 120
-1.182837 0.094454259 -0.038711563 146
-1.1832296 0.10179544 -0.038775396 103
-1.1587321 0.10686225 -0.037243344 51
-1.1590477 0.11406749 -0.037307177 34
-1.1642815 0.12179812 -0.037690192 30
-1.1625203 0.12883013 -0.037626356 45
-1.1567518 0.13538244 -0.037307177 60
-1.1539183 0.1422341 -0.037179507 55
-1.1520342 0.1491839 -0.037115671 73
-1.1599975 0.15745491 -0.037690192 57
-1.1679024 0.16582921 -0.038264714 52
-1.1816711 0.17518254 -0.039222248 42
-1.183533 0.18288606 -0.039413754 40
-1.1971688 0.19251654 -0.040371288 38
-1.2067931 0.20166445 -0.041073479 37
-1.2074996 0.20940581 -0.041201152 21
-1.2130679 0.21804459 -0.041648 47
-1.2185754 0.22675955 -0.042094849 37
-1.2201012 0.23479716 -0.042286355 37
-1.6835986 0.33456531 -0.072608277 9
-1.7949221 0.36812294 -0.080013208 11
-1.8277802 0.38655567 -0.082311288 27
-1.8400009 0.40094751 -0.083268821 18
-1.8462702 0.41419426 -0.083843343 23
-1.845639 0.4259634 -0.083971016 30
-1.8400774 0.43658945 -0.083779506 28
-1.8480297 0.45046926 -0.084481701 22
-1.8500717 0.46301049 -0.084800877 27
-1.8558956 0.47658578 -0.085375398 28
-1.8500412 0.48720253 -0.085183889 30
-1.8499075 0.49932459 -0.085375398 28
-1.845847 0.51040024 -0.085311562 21
-1.8551639 0.52524823 -0.086141422 22
-1.854782 0.53745407 -0.086332932 19
-1.8485787 0.54797435 -0.086141422 23
-1.8509122 0.56104249 -0.086524442 15
-1.8560147 0.57504529 -0.087098956 21
-1.8572088 0.58792776 -0.087418139 31
-1.8573649 0.60053962 -0.087673478 24
-1.8536451 0.61192489 -0.087673478 23
-1.8498555 0.62328708 -0.087673478 31
-1.8554344 0.6378684 -0.088311836 22
-1.8561946 0.65089136 -0.088631012 29
-1.8549851 0.66327596 -0.088822521 27
-1.8555689 0.67635328 -0.089141697 21
-1.8579329 0.69015735 -0.089588545 45
-1.8517964 0.70083833 -0.08946088 21
-1.8623611 0.71792793 -0.09048225 27
-1.861637 0.73079962 -0.090737589 34
-1.8515573 0.73998755 -0.090354577 48
-1.8460574 0.75095874 -0.09029074 39
-1.8432592 0.76303482 -0.090418413 26
-0 0 -0 7
-1.8328394 0.78520417 -0.090354577 11
-1.8362217 0.80002135 -0.090929098 11
-1.8303658 0.8108691 -0.090865262 25
-1.8317261 0.82495219 -0.09131211 32
-1.8429645 0.84364957 -0.092461154 29
-1.8377533 0.8549419 -0.092461154 30
-1.8423984 0.87089145 -0.093163341 31
-1.8451172 0.88606632 -0.093737863 30
-1.8369546 0.89605904 -0.093546353 27
-1.8341049 0.90864205 -0.093737863 26
-1.8365194 0.92391372 -0.094312385 30
-1.8334823 0.93652636 -0.094503887 40
-1.8374475 0.95281029 -0.095206082 26
-1.8386321 0.96778405 -0.095716767 35
-1.8300183 0.97763723 -0.095525257 31
-1.8292496 0.99170041 -0.095908277 39
-1.8327496 1.008195 -0.096610464 19
-1.8195568 1.015532 -0.096099779 22
-1.7742081 1.0045584 -0.093227178 45
-1.6407847 0.94238853 -0.083843343 86
-1.634109 0.9519363 -0.083779506 90
-1.6634694 0.98275 -0.086396769 62
-1.7901179 1.0724068 -0.096291289 41
-1.8056828 1.096837 -0.09795101 30
-1.8031679 1.1105117 -0.098270193 30
-1.7980132 1.1226115 -0.098397866 27
-1.7927778 1.1346899 -0.098525532 36
-1.7925023 1.1499786 -0.099036217 45
-1.7837389 1.1598679 -0.098908551 35
-1.7774218 1.1713399 -0.09897238 41
-1.7619011 1.1766829 -0.098334029 24
-1.7736596 1.2003326 -0.099802248 37
-1.7456825 1.197087 -0.098206356 12
-1.7055179 1.1850047 -0.09565293 7
-1.7014794 1.1977445 -0.095908277 17
-1.6867846 1.2029483 -0.095333755 15
-1.6567184 1.1969161 -0.093546353 12
-1.6437049 1.2029345 -0.093099505 16
-1.6066258 1.1910138 -0.090737589 17
-1.58093 1.1870711 -0.08926937 17
-1.5585217 1.1852741 -0.08805649 18
-1.5512197 1.1948148 -0.08805649 9
-1.5296934 1.1932646 -0.086907454 22
-1.5458392 1.2211822 -0.088822521 59
-1.5125967 1.2100767 -0.086715944 141
-1.4966122 1.2124267 -0.086013757 147
-1.4829711 1.2165247 -0.085503072 144
-1.4693364 1.2205011 -0.084992386 150
-1.4511256 1.220503 -0.084098682 159
-1.4337305 1.2209746 -0.083268821 161
-1.4156287 1.2206273 -0.082375124 178
-1.3983374 1.2207605 -0.081545264 173
-1.3825939 1.2220492 -0.080843069 177
-1.3624247 1.2191991 -0.079757862 187
-1.3445622 1.2181574 -0.078864165 187
-1.3260285 1.2162684 -0.077906631 213
-1.3053746 1.2121615 -0.076757587 192
-1.2877307 1.2105809 -0.07586389 200
-1.273771 1.2122691 -0.075289369 180
-1.2584016 1.212447 -0.074587181 204
-1.2473657 1.2166624 -0.074267998 188
-0.9635812 0.95159364 -0.049435947 146
-0.92383826 0.9236303 -0.046371836 201
-0.91324228 0.92431366 -0.045924988 209
-0.91382885 0.93632567 -0.046499506 175
-1.1263155 1.1681629 -0.066607729 119
-1.1432217 1.2003388 -0.068841971 178
-1.1337831 1.2051508 -0.068650469 210
-1.125008 1.2106231 -0.068522796 212
-1.1141835 1.2138281 -0.068203613 198
-1.1020211 1.2154677 -0.067756765 253
-1.0898808 1.2170038 -0.067309916 212
-1.0751178 1.2154475 -0.066607729 242
-1.063699 1.2175132 -0.066224709 250
-1.0483826 1.2149523 -0.065458685 223
-1.0324905 1.2114903 -0.064628825 276
-1.0179663 1.2094059 -0.06392663 248
-1.0035069 1.2071893 -0.063224435 261
-0.98974657 1.2056123 -0.062586084 273
-0.97667241 1.2046871 -0.062011562 255
-0.9617753 1.2013106 -0.061245535 269
-0.95067137 1.2024932 -0.060862519 251
-0.93958932 1.2035848 -0.060479507 240
-0.92609191 1.201425 -0.059841152 258
-0.915075 1.2023209 -0.059458137 274
-0.90468192 1.2039249 -0.059138957 277
-0.89311403 1.203844 -0.058692109 257
-0.88158131 1.2036666 -0.05824526 242
-0.87066954 1.2042018 -0.057862248 252
-0.85920453 1.2038366 -0.057415396 271
-0.846627 1.2017448 -0.056840878 228
-0.83752745 1.2044594 -0.056649368 269
-0.82673174 1.2046397 -0.056266356 269
-0.81596547 1.204733 -0.055883344 252
-0.80800325 1.2088875 -0.055819508 281
-0.79947108 1.2121567 -0.055691835 274
-0.79038471 1.2145303 -0.055500329 114
-0.77644455 1.2092818 -0.054734301 43
-0.76420164 1.2064371 -0.054159779 22
-0.758901 1.2144881 -0.054415122 25
-0.75562572 1.225917 -0.054925807 12
-0.74497753 1.2254148 -0.054542795 15
-0.73179698 1.2205493 -0.053840604 18
-0.72378594 1.2241577 -0.053776767 12
-0.708718 1.2156457 -0.052819233 32
-0.70323586 1.2234317 -0.053074576 23
-0.69325453 1.2233831 -0.052755397 16
-0.6842742 1.2250005 -0.052563891 15
-0.67963421 1.2344205 -0.052946903 20
-0.68157095 1.2561079 -0.054223616 43
-0.67902958 1.2699455 -0.054925807 36
-0.6707592 1.2732052 -0.054861974 29
-0.66201437 1.2755257 -0.054734301 23
-0.65781164 1.2866713 -0.055244986 15
-0.65259874 1.2960306 -0.055628002 77
-0.64685214 1.3044802 -0.055947177 109
-0.63270247 1.2958715 -0.05505348 71
-0.63122803 1.3132192 -0.056011014 134
-0.60778433 1.2845968 -0.053712931 58
-0.59146047 1.2702104 -0.052436218 15
-1.5407709 3.3611479 -0.19932197 20
-1.5234013 3.377816 -0.19983266 32
-1.502242 3.3861876 -0.19976883 30
-1.4826339 3.3980854 -0.19996032 39
-1.4601815 3.4034505 -0.19970499 37
-1.4369433 3.4068289 -0.19932197 39
-1.4133363 3.4091289 -0.19887513 33
-1.3893787 3.4103434 -0.19836444 32
-1.3762169 3.4382601 -0.19970499 23
-0 0 -0 7
-0 0 -0 6
-0 0 -0 5
-1.4491106 3.8946817 -0.22862253 5
-0 0 -0 7
-0 0 -0 4
-0 0 -0 5
-1.4636068 4.2498765 -0.25032663 7
-1.4563378 4.3145628 -0.25409293 6
-0 0 -0 6
-0 0 -0 5
-0 0 -0 5
-1.4254798 4.5920367 -0.27037102 7
-1.3990172 4.6064262 -0.27075404 4
-1.3869271 4.6694517 -0.27439266 7
-1.367992 4.7114162 -0.27662691 5
-1.3475039 4.7494826 -0.27860582 6
-0 0 -0 4
-0 0 -0 4
-0 0 -0 4
-0 0 -0 4
-1.2939628 5.15834 -0.302991 5
-1.2563639 5.1419468 -0.30139512 5
-1.2388802 5.2087812 -0.30528909 5
-0.65715331 2.8410561 -0.14933868 9
-0.63576549 2.8275099 -0.14818965 19
-0.62479663 2.860606 -0.15010472 7
-0.59501404 2.8067877 -0.1463384 20
-0.57054108 2.7751963 -0.14404033 24
-0.54394227 2.7306883 -0.14091238 43
-0.52377325 2.7163367 -0.13976334 54
-0.50489938 2.707727 -0.13899732 47
-0.48739031 2.7058635 -0.13867813 54
-0.47043625 2.7068367 -0.13855046 53
-0.45249867 2.7017984 -0.13803978 49
-0.43638906 2.7074797 -0.13823129 43
-0.42007384 2.7120788 -0.13835897 78
-0.40401229 2.7185535 -0.1386143 66
-0.3877463 2.7239454 -0.13880581 49
-0.37089047 2.7252843 -0.13874197 52
-0.35390416 2.7255297 -0.1386143 57
-0.33680624 2.7246785 -0.13842279 55
-0.31961563 2.7227292 -0.13816746 47
-0.30201998 2.7167046 -0.13765676 70
-0.28503194 2.715529 -0.13746525 69
-0.26816797 2.7152407 -0.1373376 60
-0.2512261 2.7138538 -0.13714609 50
-0.23448345 2.71435 -0.13708225 72
-0.2175843 2.7127535 -0.13689074 60
-0.20034444 2.7060757 -0.13638006 62
-0.18360107 2.7052627 -0.13625239 90
-0.16681361 2.7033501 -0.13606088 57
-0.15011203 2.7023299 -0.13593321 58
-0.13357741 2.7041969 -0.13599704 70
-0.11706877 2.7069597 -0.13612472 60
-0.10060556 2.711616 -0.13638006 73
-0.084089607 2.7161722 -0.13663539 59
-0.067446806 2.7176347 -0.13669923 57
-0.050714098 2.715004 -0.13650772 46
-0.016279344 1.3142405 -0.046882521 63
-0.0081953993 1.3113217 -0.046691015 66
-0.00014871192 1.3103495 -0.046627179 37
0.015879324 2.7064495 -0.13593321 41
0.015943134 1.3112504 -0.046691015 40
0.023916693 1.3071368 -0.046435673 46
0.03188853 1.30497 -0.046308 59
0.039834678 1.3027548 -0.04618033 63
0.0478638 1.3034831 -0.046244163 65
0.05573361 1.3001738 -0.046052657 37
0.13231768 2.7082555 -0.13625239 47
0.071575202 1.297399 -0.045924988 57
0.079534546 1.2969354 -0.045924988 49
0.087624684 1.2984145 -0.046052657 43
0.095443949 1.2958617 -0.045924988 36
0.21501417 2.6989429 -0.13599704 31
0.23216701 2.7045329 -0.13644388 46
0.24903126 2.7060387 -0.13663539 30
0.12780167 1.2990884 -0.046308 57
0.13608082 1.3012574 -0.046499506 52
0.14406262 1.300398 -0.046499506 43
0.15238601 1.3024632 -0.046691015 49
0.16061841 1.3034847 -0.046818685 45
0.16925254 1.3074234 -0.047137864 56
0.17753935 1.308338 -0.047265533 36
0.18556382 1.307224 -0.047265533 32
0.19460346 1.3129714 -0.047712382 50
0.20235188 1.30978 -0.047584713 48
0.21006848 1.306543 -0.047457039 42
0.21775299 1.3032608 -0.04732937 33
0.22455411 1.2950168 -0.046882521 27
0.23090982 1.2847741 -0.046308 42
0.23678385 1.2725401 -0.045605808 33
0.25117725 1.3053646 -0.047840055 259
0.24927346 1.2538767 -0.044584438 39
0.2533572 1.2347258 -0.043435398 48
0.25804058 1.2194782 -0.042541698 41
0.26764104 1.2276232 -0.043180056 83
0.26993051 1.2025867 -0.041648 38
0.27573481 1.1941006 -0.041201152 46
0.2816754 1.18656 -0.040818136 34
0.28942296 1.1867486 -0.040945809 38
0.29742551 1.1878549 -0.041137315 40
0.30470845 1.1860075 -0.041137315 28
0.3129957 1.187976 -0.041392658 42
0.32157841 1.1908507 -0.041711837 39
0.33020812 1.1936648 -0.042031012 35
0.33806944 1.1935368 -0.042158686 33
0.34483138 1.1895227 -0.042031012 35
0.35325739 1.1912119 -0.042286355 79
0.36229566 1.1947527 -0.042669371 307
0.36873424 1.1896472 -0.042477865 324
0.36970592 1.167381 -0.041137315 94
0.37317994 1.1536951 -0.040371288 70
0.37743801 1.1428542 -0.039796766 56
0.3831695 1.1367337 -0.039541423 60
0.38916439 1.1315297 -0.039349917 50
0.39576995 1.1281787 -0.039286081 44
0.40234905 1.1247894 -0.039222248 73
0.40958464 1.123237 -0.039286081 79
0.41924754 1.1281873 -0.039796766 83
0.42722124 1.1283939 -0.039988276 68
0.43628955 1.1313387 -0.040371288 88
0.44577447 1.1351435 -0.040818136 93
0.45421189 1.136094 -0.041073479 71
0.46267772 1.1369835 -0.041328821 69
0.47193453 1.1396561 -0.041711837 91
0.4808543 1.1413379 -0.042031012 69
0.49059802 1.1447878 -0.042477865 76
0.50080049 1.1490757 -0.042988546 66
0.50784171 1.1459812 -0.042988546 72
0.51691186 1.1473937 -0.043307725 80
0.52477282 1.1460154 -0.043435398 79
0.53347784 1.1463935 -0.043690741 69
0.54391241 1.1503172 -0.044201426 50
0.55052853 1.1460584 -0.04413759 55
0.55623817 1.1399678 -0.043946084 79
0.564551 1.1392163 -0.04413759 80
0.59484333 1.1820935 -0.047457039 243
0.60571563 1.1855319 -0.047967725 298
0.61481541 1.1853371 -0.048223067 319
0.6234709 1.1841918 -0.048414577 313
0.63166541 1.1821046 -0.048542246 279
0.64223498 1.1843485 -0.048989095 338
0.65141326 1.1838834 -0.049244437 292
0.66012377 1.1824787 -0.049435947 311
0.6698246 1.1827486 -0.049755123 328
0.67855972 1.1812128 -0.049946629 292
0.68730122 1.1796142 -0.050138138 312
0.69757086 1.1805308 -0.05052115 334
0.70787752 1.1813655 -0.050904166 314
0.71770263 1.1812649 -0.051223341 304
0.72964573 1.1844875 -0.051797863 276
0.73954177 1.1842211 -0.052117042 308
0.75106251 1.186408 -0.052627727 308
0.76156038 1.1868176 -0.053010739 301
0.77209139 1.1871428 -0.053393755 277
0.78155702 1.1857166 -0.053649098 266
0.79158819 1.1850487 -0.053968273 283
0.8010813 1.1834757 -0.054223616 281
0.81171334 1.1834769 -0.054606631 223
0.82180607 1.1825724 -0.054925807 243
0.83249253 1.1824045 -0.055308823 254
0.84262842 1.1813372 -0.055628002 306
0.85395098 1.1818081 -0.05607485 239
0.86472166 1.1813788 -0.056457862 279
0.8755191 1.1808616 -0.056840878 277
0.88754076 1.1818526 -0.057351563 286
0.89900339 1.1819457 -0.057798412 272
0.90989161 1.1811517 -0.058181424 263
0.92080379 1.1802684 -0.058564439 308
0.93359464 1.1816452 -0.059138957 281
0.94269729 1.1782328 -0.059330467 311
0.95744544 1.181733 -0.060096495 244
0.96974063 1.1820096 -0.060607176 284
0.9820751 1.1821796 -0.061117861 276
0.99573231 1.1837701 -0.06175622 284
1.008799 1.1844773 -0.062330741 263
1.0232146 1.1865805 -0.063032933 277
1.0337569 1.1840395 -0.063352108 235
1.0462885 1.1836572 -0.063862793 261
1.0581889 1.1824217 -0.064309642 258
1.0694435 1.1803448 -0.064692661 256
1.0813867 1.1789098 -0.06513951 213
1.0940312 1.1781038 -0.065650195 236
1.1060231 1.1764597 -0.066097043 248
1.1228505 1.1797738 -0.066990741 214
1.1383755 1.1814878 -0.067756765 183
1.1490868 1.1780534 -0.068075947 174
1.1612008 1.1759526 -0.068522796 142
1.1867341 1.1871603 -0.070182517 38
1.1925766 1.178453 -0.070054851 37
1.201213 1.1725078 -0.070182517 39
1.2069483 1.1637295 -0.070054851 34
1.214066 1.156302 -0.070054851 32
1.2298585 1.1570387 -0.070820875 57
1.2742096 1.1841259 -0.074076496 123
1.2836564 1.1783103 -0.074267998 191
1.3019496 1.1804692 -0.075225532 191
1.3180875 1.1804497 -0.075991563 185
1.332779 1.1789535 -0.076629914 213
1.3467504 1.1766646 -0.077204436 220
1.3569664 1.1709876 -0.077459782 183
1.3785542 1.1749419 -0.078672655 138
1.364364 1.1484618 -0.076885261 22
1.3698506 1.1387923 -0.076757587 10
0 0 -0 5
1.3767468 1.1162384 -0.076183066 5
1.3843489 1.1083937 -0.076246902 4
0 0 -0 5
0 0 -0 3
0 0 -0 4
0 0 -0 10
0 0 -0 5
0 0 -0 4
0 0 -0 4
0 0 -0 5
0 0 -0 5
0 0 -0 4
0 0 -0 5
0 0 -0 5
0 0 -0 5
0 0 -0 5
0 0 -0 5
0 0 -0 5
2.4166484 1.5521275 -0.14652991 5
0 0 -0 5
0 0 -0 6
2.3768563 1.4654721 -0.14142306 11
2.348289 1.4280398 -0.1386143 7
0 0 -0 5
2.2608507 1.337121 -0.13082635 5
2.2457385 1.3096461 -0.1291028 11
2.2381608 1.2868856 -0.12795375 5
2.2460148 1.2731283 -0.12795375 8
2.2581398 1.2617576 -0.12827294 6
2.2728319 1.2517307 -0.12878361 16
2.2804697 1.2377613 -0.12878361 14
2.30826 1.2345737 -0.13025184 11
7.4651618 3.9350193 -0.50260496 18
3.1548507 1.6380634 -0.19019347 5
0 0 -0 4
3.2157109 1.6198821 -0.19312991 6
3.2121804 1.5934666 -0.19217238 9
7.3303933 3.5810709 -0.48466718 16
7.3450336 3.5325644 -0.48415649 17
7.425199 3.5151882 -0.48830581 43
7.4303455 3.4619746 -0.48715678 46
7.4478197 3.414654 -0.48690143 34
7.47227 3.3705323 -0.48715678 39
7.4134512 3.2894027 -0.48160306 17
0 0 -0 6
7.4422541 3.1934578 -0.48083705 4
0 0 -0 5
3.2376673 1.3422313 -0.18700171 5
3.2670979 1.3310024 -0.18846992 5
3.2761297 1.3113017 -0.18853375 10
0 0 -0 5
3.305939 1.2763931 -0.18949129 12
3.2997115 1.2507766 -0.18853375 7
3.2970359 1.2266774 -0.18783157 7
3.3138745 1.2098477 -0.18846992 7
3.3249936 1.1908376 -0.18872526 8
3.334121 1.1710751 -0.18885294 6
3.3487921 1.1531956 -0.18936361 8
0 0 -0 5
3.5209174 1.1643575 -0.20002416 103
3.557426 1.1522677 -0.20200306 32
3.6157961 1.1467144 -0.20545019 32
3.6751828 1.1407835 -0.20896114 27
3.7317667 1.1332963 -0.2122806 33
3.7883949 1.1251569 -0.21560006 20
3.8211031 1.1094059 -0.21732362 23
0 0 -0 6
7.371562 2.0428667 -0.45211101 47
7.4301972 2.0101089 -0.45517513 36
7.5012498 1.9800197 -0.4590691 22
7.4456067 1.9165381 -0.4546006 38
7.445611 1.867902 -0.45383456 39
7.4957089 1.8316592 -0.456388 22
7.5271945 1.7904826 -0.45772853 20
0 0 -0 6
5.5390453 1.245842 -0.32597184 4
5.5339112 1.2090615 -0.32514197 7
5.5851564 1.1844025 -0.32801458 4
5.615778 1.1549368 -0.32954663 5
0 0 -0 5
5.7226171 1.103899 -0.33561102 5
5.8470058 1.0907338 -0.34327129 12
6.208137 1.1187518 -0.36631593 121
6.4026752 1.1133033 -0.37850854 124
6.5698152 1.1008887 -0.38891375 105
6.8188109 1.0996563 -0.40461731 137
7.079864 1.0972428 -0.42108691 141
7.2315669 1.0753665 -0.43047073 164
7.4968796 1.0678588 -0.44719568 203
7.4874697 1.0196832 -0.44617429 263
7.4629068 0.96973383 -0.44419539 255
7.4895148 0.926498 -0.44553593 196
7.4603691 0.87644857 -0.44330171 249
7.4715576 0.83131856 -0.4436847 200
7.4636154 0.78410208 -0.44285485 165
7.462327 0.73770207 -0.44247183 225
7.4528012 0.69061035 -0.44157812 227
7.4529214 0.64452368 -0.4413228 221
7.4636993 0.5993408 -0.44176963 207
7.4612651 0.55309016 -0.44138664 186
3.026861 0.20547433 -0.15687129 145
3.0330451 0.18720604 -0.15719047 135
3.0381222 0.16881408 -0.1574458 148
3.0351138 0.14997181 -0.15719047 150
3.0250096 0.13086998 -0.15648827 169
3.0207694 0.11212068 -0.1561691 161
3.0164132 0.093428344 -0.15584992 152
3.0149343 0.074868418 -0.15572225 173
3.0133414 0.056330152 -0.15559457 160
3.0126324 0.037826914 -0.15553074 161
3.009814 0.019321427 -0.15533923 151
3.0058839 0.00085153768 -0.15508389 167
3.000843 -0.017563688 -0.15476471 176
2.9916978 -0.035869688 -0.1541902 133
2.9874301 -0.054153901 -0.15393485 175
2.9830508 -0.072387099 -0.1536795 158
2.9825506 -0.090689391 -0.1536795 163
2.9829352 -0.10902459 -0.15374334 165
2.9842043 -0.12741035 -0.15387101 175
2.9833663 -0.14571869 -0.15387101 132
2.9774337 -0.16374819 -0.15355183 170
2.9713924 -0.18171039 -0.15323266 164
2.9672344 -0.1997384 -0.15304115 159
2.9649577 -0.21786825 -0.15297732 150
2.9605806 -0.23581946 -0.15278581 148
2.9580836 -0.25389561 -0.15272197 144
2.9534886 -0.27176735 -0.15253046 128
2.949779 -0.28968969 -0.15240279 133
2.9449685 -0.30747324 -0.15221129 159
2.9519536 -0.32652372 -0.15278581 36
7.4560456 -0.87046862 -0.44298252 274
7.4901843 -0.92107165 -0.44553593 274
7.5031967 -0.96944189 -0.44674882 274
7.5188637 -1.0184082 -0.4481532 233
7.5668187 -1.0722218 -0.45166415 176
7.5304804 -1.1142501 -0.44974908 291
7.5442142 -1.1636288 -0.45108965 134
5.4085693 -0.8683458 -0.31320471 22
5.3667178 -0.89544159 -0.31084278 31
5.1949382 -0.89958954 -0.30005458 107
5.2001257 -0.93338674 -0.30075675 159
5.195282 -0.96545881 -0.30082059 154
5.19416 -0.99825966 -0.30113977 103
4.7122087 -0.93568832 -0.27011567 14
4.7337527 -0.97019237 -0.27190307 20
4.7189231 -0.99736333 -0.27132854 17
4.2865858 -0.93353665 -0.24343239 29
4.1512613 -0.93079376 -0.23494224 50
4.1425543 -0.95557523 -0.23475073 58
4.1453528 -0.98304713 -0.23532526 53
4.1440907 -1.0096447 -0.23564443 58
4.1445947 -1.0367479 -0.23609129 50
4.1410556 -1.0629033 -0.2362828 41
2.3325961 -0.61417544 -0.1171017 49
2.3075857 -0.62275946 -0.11569732 38
2.2585108 -0.62441558 -0.11269704 20
2.2210276 -0.62875342 -0.11046279 27
2.1797428 -0.63154495 -0.1079732 23
2.1298971 -0.63130307 -0.10490909 37
2.0849137 -0.63192022 -0.10216416 23
2.056211 -0.63702714 -0.10050444 29
1.9932714 -0.63097012 -0.096546628 38
1.8953497 -0.61281276 -0.090226904 77
1.881129 -0.62099171 -0.089524709 59
1.843235 -0.62105793 -0.087226629 39
1.7903112 -0.61549479 -0.08390718 33
1.7610722 -0.61755723 -0.082183614 39
1.7281171 -0.61794114 -0.08020471 33
1.688661 -0.61555326 -0.077778958 48
1.6595918 -0.61652547 -0.0760554 32
1.6352423 -0.61892974 -0.07465101 32
1.5932331 -0.61424196 -0.072033755 48
1.5671377 -0.61525869 -0.0705017 56
1.5503583 -0.61968046 -0.069608003 39
1.5086232 -0.61377156 -0.066990741 46
1.4909966 -0.61729389 -0.066033207 54
1.4651058 -0.61713874 -0.064501151 69
1.4502827 -0.62140316 -0.06373512 60
1.4372927 -0.62630594 -0.063096769 64
1.3960097 -0.61854768 -0.060479507 123
1.3949182 -0.62833071 -0.060671013 131
1.3892215 -0.63604754 -0.060543343 160
1.3852926 -0.64455962 -0.060543343 179
1.3831164 -0.65390015 -0.060671013 206
1.3808774 -0.66323811 -0.060798686 168
1.3785759 -0.67257327 -0.060926355 205
1.3762118 -0.68190509 -0.061054029 172
1.3791345 -0.69392312 -0.061564714 181
1.3810724 -0.70554876 -0.062011562 211
1.3846915 -0.71814269 -0.062586084 215
1.3882076 -0.73080742 -0.063160606 237
1.3898596 -0.74260199 -0.063607454 232
1.3887866 -0.7530179 -0.063862793 247
1.3867635 -0.76296771 -0.064054303 232
1.3837988 -0.77243471 -0.064181976 233
1.3816388 -0.78238559 -0.064373478 258
1.3794086 -0.79233903 -0.064564988 278
1.3779706 -0.8027966 -0.064820327 345
1.376456 -0.81326634 -0.065075673 269
1.3740087 -0.82323486 -0.065267175 184
1.3663725 -0.8300963 -0.065075673 178
1.3595537 -0.83741826 -0.064948 199
1.3510033 -0.84363109 -0.064692661 165
1.3390546 -0.84763634 -0.064181976 172
1.3254278 -0.85044944 -0.063543618 220
1.3101437 -0.85203969 -0.062777586 244
1.2923902 -0.85182774 -0.061820056 194
1.2672191 -0.84644341 -0.060288001 178
1.2462964 -0.84357864 -0.059075125 149
1.2271035 -0.84161788 -0.057989918 142
1.2088016 -0.84002298 -0.056968547 123
1.1889337 -0.83708692 -0.055819508 127
1.1732111 -0.8368355 -0.054989643 126
1.1591548 -0.83759147 -0.054287452 97
1.1386901 -0.83349293 -0.053074576 144
1.1303473 -0.83808756 -0.052819233 113
1.1092204 -0.83302623 -0.051542521 146
1.0874045 -0.82713372 -0.050201971 166
1.0791458 -0.83135509 -0.049946629 137
1.0645804 -0.83059716 -0.049180605 128
1.0492822 -0.82907355 -0.04835074 125
1.0348226 -0.82801706 -0.047584713 150
1.0196401 -0.8261866 -0.046754848 163
1.0068345 -0.82609969 -0.046116494 155
0.99176538 -0.82397443 -0.045286629 167
0.97905219 -0.82362223 -0.044648275 166
0.96866065 -0.82508594 -0.044201426 169
0.95677638 -0.82515025 -0.043626904 185
0.94492805 -0.8251 -0.043052383 146
0.93311656 -0.82493567 -0.042477865 106
0.92059916 -0.82399231 -0.041839506 166
0.90886843 -0.82359654 -0.041264985 150
0.8957063 -0.82173926 -0.040562794 164
0.88552725 -0.82246739 -0.040115945 165
0.87464595 -0.82241827 -0.03960526 165
0.86307573 -0.82157904 -0.039030738 179
0.8522678 -0.82132125 -0.038520057 164
0.84221029 -0.82165861 -0.038073204 179
0.83289123 -0.82260466 -0.037690192 195
0.82147449 -0.82135135 -0.037115671 184
0.811508 -0.82140857 -0.036668822 196
0.80017745 -0.81994659 -0.0360943 183
0.78889561 -0.81837672 -0.035519782 179
0.77904022 -0.8181445 -0.03507293 197
0.76921761 -0.81782234 -0.034626082 211
0.76010799 -0.81814146 -0.03424307 198
0.75169855 -0.81911486 -0.03392389 225
0.74129444 -0.81779844 -0.033413205 230
0.73293287 -0.81861526 -0.033094026 226
0.72458923 -0.81936038 -0.032774851 215
0.71495068 -0.81853127 -0.032327998 248
0.70600188 -0.81837034 -0.031944986 217
0.69902462 -0.82040876 -0.03175348 260
0.68819201 -0.81781238 -0.031178959 209
0.67933226 -0.81741601 -0.030795945 262
0.66860312 -0.81462842 -0.030221425 232
0.65856266 -0.8125152 -0.02971074 253
0.6510691 -0.81342524 -0.029455397 232
0.64235109 -0.81270862 -0.029072383 237
0.63489509 -0.81348878 -0.028817041 241
0.6274538 -0.81420815 -0.028561698 270
0.61881846 -0.81327903 -0.028178684 236
0.61141777 -0.81387007 -0.027923342 256
0.60462797 -0.81520236 -0.027731836 275
0.59725505 -0.81567711 -0.027476493 271
0.58989918 -0.81609219 -0.027221151 269
0.58256072 -0.81644785 -0.026965808 277
0.5758152 -0.81755996 -0.026774302 243
0.56907809 -0.81862015 -0.026582794 253
0.56065488 -0.81716049 -0.02619978 234
0.55395073 -0.81810683 -0.026008274 286
0.54725617 -0.81900179 -0.025816767 259
0.54057151 -0.8198455 -0.025625261 274
0.52736247 -0.81060261 -0.024667727 136
0.5223788 -0.81382316 -0.024667727 130
0.51470417 -0.81279856 -0.024348548 240
0.50653279 -0.81086439 -0.023965534 240
0.49945238 -0.81055957 -0.023710191 253
0.49343219 -0.81190366 -0.02358252 240
